# .PCD v0.7 - Point Cloud Data file format
VERSION 0.7
FIELDS x y z
SIZE 4 4 4
TYPE F F F
COUNT 1 1 1
WIDTH 342
HEIGHT 1
VIEWPOINT 0 0 0 1 0 0 0
POINTS 342
DATA ascii
-0.60000002 20.4 3.9000001
-0.30000001 20.4 3.9000001
-0.30000001 20.4 4.1999998
1.2 18.299999 4.1999998
1.5 18.299999 4.1999998
1.5 18.6 4.1999998
1.8 18.6 4.1999998
1.8 18.9 4.5
2.0999999 18.9 4.5
-10.8 15.9 1.2
-10.8 16.200001 1.2
-10.8 16.5 1.2
-10.8 15.9 1.5
-10.8 16.200001 1.5
-10.8 16.5 1.5
-10.8 16.799999 1.2
-10.8 16.799999 1.5
-12.6 21.9 1.5
-12.3 21.9 1.5
-12.3 22.200001 1.5
-12.6 21.9 1.8
-12.3 21.9 1.8
-12.9 21.9 2.0999999
-12.6 21.9 2.0999999
-12.3 21.9 2.0999999
-12 21.9 1.5
-12 22.200001 1.5
-12 22.5 1.5
-11.7 22.5 1.5
-12 21.9 1.8
-12 22.200001 1.8
-12 22.5 1.8
-11.7 22.5 1.8
-11.7 22.799999 1.8
-12 21.9 2.0999999
-12 22.200001 2.0999999
-11.7 22.200001 2.0999999
-11.7 22.5 2.0999999
-12.9 21.9 2.4000001
-12.6 21.9 2.4000001
-12.3 21.9 2.4000001
-12.9 21.6 2.7
-12.6 21.6 2.7
-12.3 21.6 2.7
-12.6 21.9 2.7
-12.3 21.9 2.7
-12.9 21.6 3
-12.6 21.6 3
-12.3 21.6 3
-12 21.9 2.4000001
-12 22.200001 2.4000001
-11.7 22.200001 2.4000001
-12 21.9 2.7
-11.7 21.9 2.7
-11.7 22.200001 2.7
-12 21.6 3
-12 21.9 3
-11.7 21.9 3
-11.7 22.200001 3
11.7 20.700001 2.0999999
12 20.700001 2.0999999
12 21 2.0999999
12.3 21 2.0999999
12.3 21.299999 2.0999999
11.1 20.1 3
11.1 20.4 3
11.4 20.4 3
11.7 20.700001 3
11.1 20.1 3.5999999
11.1 20.4 3.5999999
11.4 20.4 3.5999999
11.4 20.4 3.9000001
11.7 20.700001 3.9000001
11.7 21 3.9000001
9.8999996 20.1 4.1999998
9.8999996 20.4 4.1999998
10.2 20.4 4.1999998
10.2 20.4 4.5
10.5 20.700001 4.5
10.8 20.700001 4.5
10.8 21 4.5
11.4 21 4.5
9.8999996 21.299999 4.5
11.7 21.299999 4.5
12.6 21.299999 2.4000001
12 20.700001 3
12 21 3
12.3 21 3
12.3 21.299999 3
12.6 21.299999 3
12 21 3.9000001
12 21.299999 3.9000001
12.3 21.299999 3.9000001
11.1 21.6 4.5
12.9 21.6 2.4000001
13.2 21.9 2.4000001
13.2 22.200001 2.4000001
13.2 22.5 2.4000001
13.2 22.799999 2.4000001
13.5 22.799999 2.4000001
13.5 23.1 2.4000001
13.5 23.4 2.4000001
13.5 23.700001 2.4000001
13.8 23.700001 2.4000001
12.9 21.6 3
13.2 21.9 3
13.2 22.200001 3
13.2 22.200001 3.3
13.2 22.5 3.3
13.2 22.799999 3.3
13.5 22.799999 3.3
13.5 23.1 3.3
13.5 23.4 3.3
13.5 23.700001 3.3
12.6 21.6 3.9000001
12.9 21.9 3.9000001
12.9 22.200001 3.9000001
12.9 22.5 3.9000001
12.9 22.799999 3.9000001
12.9 23.1 3.9000001
12.9 23.4 3.9000001
12.9 23.700001 3.9000001
13.8 24 2.4000001
13.8 24.299999 2.4000001
14.1 24.299999 2.4000001
14.1 24.6 2.4000001
14.1 24.9 2.4000001
13.5 24 3.3
13.8 24 3.3
13.8 24.299999 3.3
13.8 24.6 3.3
12 21.6 4.8000002
12 21.9 4.8000002
2.0999999 21.9 1.8
2.0999999 22.200001 1.8
1.8 21.9 2.0999999
2.0999999 21.9 2.0999999
2.4000001 21.9 1.8
2.7 21.9 1.8
3 21.9 1.8
3.3 21.9 1.8
3.5999999 21.9 1.8
3.9000001 21.9 1.8
4.1999998 21.9 1.8
4.5 21.9 1.8
2.4000001 22.200001 1.8
2.4000001 21.9 2.0999999
4.8000002 21.9 1.8
5.0999999 21.9 1.8
5.4000001 21.9 1.8
5.6999998 21.9 1.8
6 22.200001 1.8
6.3000002 22.200001 1.8
6.5999999 22.200001 2.0999999
6.9000001 22.200001 2.0999999
7.1999998 22.200001 2.0999999
7.5 22.200001 2.0999999
0.89999998 21.299999 3.5999999
1.2 21.299999 3.5999999
1.5 21.299999 3.5999999
1.8 21.299999 3.5999999
2.0999999 21.299999 3.5999999
1.2 20.700001 3.9000001
1.5 20.700001 3.9000001
1.8 20.700001 3.9000001
0.30000001 21 3.9000001
0.60000002 21 3.9000001
0.89999998 21 3.9000001
1.2 21 3.9000001
0.30000001 20.1 4.1999998
0.60000002 20.1 4.1999998
0.89999998 20.1 4.1999998
1.2 20.1 4.1999998
0 20.4 4.1999998
0.30000001 20.4 4.1999998
0.60000002 20.4 4.1999998
2.0999999 20.4 4.1999998
1.8 20.700001 4.1999998
2.0999999 19.5 4.5
1.5 19.799999 4.5
1.8 19.799999 4.5
2.0999999 19.799999 4.5
1.2 20.1 4.5
1.5 20.1 4.5
3.3 21.299999 3.3
3.5999999 21.299999 3.3
3.9000001 21.299999 3.3
2.4000001 21.299999 3.5999999
3.9000001 21.299999 3.5999999
4.1999998 21.299999 3.5999999
4.5 21.299999 3.5999999
3.9000001 20.700001 3.9000001
4.1999998 20.700001 3.9000001
4.5 20.700001 3.9000001
3 21 3.9000001
3.3 21 3.9000001
3.5999999 21 3.9000001
3.9000001 21 3.9000001
2.7 21.299999 3.9000001
3 21.299999 3.9000001
2.7 20.1 4.1999998
3 20.1 4.1999998
3.3 20.1 4.1999998
2.4000001 20.4 4.1999998
2.7 20.4 4.1999998
4.5 20.700001 4.1999998
2.4000001 19.200001 4.5
2.7 19.200001 4.5
4.5 19.200001 4.5
2.4000001 19.5 4.5
2.7 19.5 4.5
4.5 19.5 4.5
3.5999999 19.799999 4.5
3.9000001 19.799999 4.5
4.1999998 19.799999 4.5
3.3 20.1 4.5
3.5999999 20.1 4.5
4.8000002 21.299999 3.5999999
5.0999999 21.299999 3.5999999
5.4000001 21.299999 3.5999999
5.6999998 21.299999 3.5999999
6 21.299999 3.5999999
6 21.299999 3.9000001
6.3000002 21.299999 3.9000001
6.5999999 21.299999 3.9000001
6.9000001 21.299999 3.9000001
4.8000002 20.4 4.1999998
5.0999999 20.4 4.1999998
5.4000001 20.4 4.1999998
5.6999998 20.4 4.1999998
6 20.4 4.1999998
4.8000002 20.700001 4.1999998
4.8000002 19.200001 4.5
4.8000002 19.5 4.5
6.3000002 20.1 4.5
6.5999999 20.1 4.5
6.9000001 20.1 4.5
7.5 21 3.9000001
7.8000002 21 3.9000001
7.1999998 21.299999 3.9000001
7.5 21.299999 3.9000001
8.1000004 21 4.1999998
8.3999996 21 4.1999998
8.6999998 21.299999 4.1999998
9.3000002 21.299999 4.1999998
7.8000002 19.799999 4.5
7.1999998 20.1 4.5
7.5 20.1 4.5
7.8000002 20.1 4.5
1.5 21.6 2.7
1.8 21.6 2.7
2.0999999 21.6 2.7
1.2 21.6 3
1.5 21.6 3
1.8 21.6 3
1.8 21.6 3.3
2.0999999 21.6 3.3
2.4000001 21.9 2.4000001
2.7 21.9 2.4000001
3 21.9 2.4000001
3.3 21.9 2.4000001
3.5999999 21.9 2.4000001
3.9000001 21.9 2.4000001
4.1999998 21.9 2.4000001
4.5 21.9 2.4000001
2.4000001 21.6 2.7
2.7 21.6 2.7
3 21.6 2.7
3.3 21.6 2.7
3.3 21.6 3
3.5999999 21.6 3
3.9000001 21.6 3
4.1999998 21.6 3
4.5 21.6 3
2.4000001 21.6 3.3
2.7 21.6 3.3
3 21.6 3.3
3.3 21.6 3.3
3.5999999 21.6 3.3
4.8000002 21.9 2.4000001
5.0999999 21.9 2.4000001
5.4000001 21.9 2.4000001
5.6999998 21.9 2.4000001
6 21.9 2.4000001
6.3000002 21.9 2.7
6.5999999 21.9 2.7
6.9000001 21.9 2.7
4.8000002 21.6 3
5.0999999 21.6 3
5.4000001 21.6 3
5.6999998 21.6 3
6 21.6 3
6 21.6 3.3
6.3000002 21.6 3.3
6.5999999 21.6 3.3
6.9000001 21.6 3.3
7.1999998 21.9 2.7
7.5 21.9 2.7
7.1999998 21.6 3.3
7.5 21.6 3.3
7.1999998 21.9 3.3
7.5 21.9 3.3
2.7 19.5 4.8000002
3 19.5 4.8000002
5.0999999 19.5 4.8000002
-5.4000001 15.9 1.2
-5.0999999 15.9 1.2
-5.4000001 15.9 1.5
-5.0999999 15.9 1.5
-5.0999999 15.9 1.8
-5.4000001 15.9 2.0999999
-5.0999999 15.9 2.0999999
-4.8000002 15.9 1.2
-4.8000002 16.200001 1.2
-4.5 16.200001 1.2
-4.1999998 16.200001 1.2
-4.8000002 15.9 1.5
-4.5 16.200001 1.5
-4.1999998 16.200001 1.5
-4.8000002 15.9 1.8
-4.5 15.9 1.8
-4.5 16.200001 1.8
-4.1999998 16.200001 1.8
-3.9000001 16.200001 1.8
-4.8000002 15.9 2.0999999
-4.8000002 16.200001 2.0999999
-4.5 16.200001 2.0999999
-4.1999998 16.200001 2.0999999
-3.9000001 16.5 2.0999999
-5.4000001 15.6 2.4000001
-5.4000001 15.9 2.4000001
-5.0999999 15.9 2.4000001
-5.0999999 16.200001 2.4000001
-4.8000002 16.200001 2.4000001
-4.5 16.200001 2.4000001
-4.1999998 16.5 2.4000001
-3.9000001 16.5 2.4000001
-4.5 16.200001 2.7
-4.5 16.5 2.7
-4.1999998 16.5 2.7
-3.9000001 16.5 2.7
-3.9000001 16.799999 2.7
