# .PCD v0.7 - Point Cloud Data file format
VERSION 0.7
FIELDS x y z intensity
SIZE 4 4 4 4
TYPE F F F F
COUNT 1 1 1 1
WIDTH 1438
HEIGHT 1
VIEWPOINT 0 0 0 1 0 0 0
POINTS 1438
DATA ascii
-5.5624466 1.1123203 0.52653587 0
-5.4425631 1.124727 0.54023653 0
-5.3152428 1.1354496 0.55491871 0
-5.217833 1.1488639 0.56582701 0
10.82679 1.5253774 -0.04696846 0
10.807755 1.6358395 -0.050456047 0
10.833011 1.6395285 -0.054671556 0
-4.2886548 1.4821877 0.4336971 0
-4.2734308 1.4792709 0.43627137 0
-4.2397723 1.5598911 0.43493852 0
-4.2052431 1.6289535 0.43450528 0
-4.1535115 1.6826179 0.437814 0
-4.1211786 1.7402804 0.43771568 0
-4.0766759 1.7727277 0.44157806 0
5.384593 6.212882 -0.019549325 0
5.453465 6.2314925 -0.031154633 0
5.5259418 6.2546721 -0.044050276 0
5.5671225 6.2734385 -0.052389964 0
5.6377406 6.2911754 -0.064191669 0
5.7450829 6.3174405 -0.082107559 0
5.831811 6.3559866 -0.099682987 0
5.8697433 6.3664093 -0.10627173 0
5.941721 6.3803225 -0.11780255 0
6.0358267 6.401998 -0.13355628 0
6.0977015 6.4217329 -0.14490533 0
7.5127459 7.2711716 -0.1505468 0
7.7260427 7.4533997 -0.20004621 0
7.8367157 7.5089769 -0.22044073 0
7.8747892 7.5027475 -0.22402626 0
7.9425306 7.5311289 -0.23577619 0
8.0137138 7.5628133 -0.24838948 0
8.1114445 7.5984154 -0.26466903 0
10.887247 8.8907776 -0.32530496 0
10.991164 8.9279127 -0.33952874 0
11.128893 8.9955235 -0.36025858 0
11.226645 9.0248098 -0.37309435 0
11.400524 9.1230335 -0.40059465 0
11.581346 9.2257299 -0.4292632 0
11.688881 9.2602396 -0.44365823 0
11.861843 9.352519 -0.47051179 0
11.923395 9.3436842 -0.47591561 0
4.6299658 -3.0676403 0.47587252 0
4.6879907 -3.0883005 0.46222395 0
4.7434139 -3.1050243 0.44954678 0
4.5833097 -3.0475006 0.48728091 0
-1.9522272 -0.38250312 0.61295581 0
-6.4125223 0.98746884 0.72207785 0
-5.0997047 1.1590687 0.57940745 0
-5.0070109 1.1716741 0.58977103 0
-4.8873267 1.1801425 0.6036185 0
-4.7697296 1.1880649 0.61723638 0
-4.6155996 1.201437 0.63487351 0
6.6268649 6.7987304 0.014970943 0
6.7182941 6.8251696 0.0011230707 0
6.8244305 6.8689709 -0.016838059 0
6.9236956 6.9017959 -0.032551736 0
7.0167952 6.9247642 -0.046254113 0
7.1045237 6.9393053 -0.058234781 0
7.245585 7.0421991 -0.088496223 0
7.3446465 7.1153498 -0.10988821 0
9.8875942 8.3331718 -0.1685113 0
10.030149 8.4172535 -0.19130012 0
10.140259 8.4680538 -0.20745921 0
10.353661 8.6179523 -0.24407226 0
10.508973 8.7093744 -0.26892135 0
10.578897 8.7174025 -0.27673414 0
10.741465 8.8128939 -0.30275035 0
6.0105906 -3.5630696 0.55591905 0
6.1018677 -3.5920124 0.53993613 0
4.310102 -2.9778981 0.54672205 0
4.3865881 -2.9935753 0.53076869 0
4.4842005 -3.0214148 0.50913525 0
4.5475655 -3.0399356 0.49493897 0
4.107842 -2.9063709 0.59253997 0
4.207798 -2.9367762 0.57069993 0
4.2916484 -2.9538341 0.5534116 0
3.0915275 -2.8145008 0.63694412 0
3.1964972 -2.8038948 0.62382662 0
3.2953155 -2.800792 0.60941374 0
3.3940463 -2.795939 0.59470117 0
3.4941864 -2.7935863 0.57866108 0
3.5957112 -2.7929351 0.56145716 0
3.674844 -2.7872508 0.54861647 0
3.1459732 -2.7883384 0.63445395 0
3.5017476 -2.7777648 0.58044362 0
3.6597991 -2.7786446 0.55290151 0
-1.551855 -0.63527966 0.69760203 0
-1.4872923 -0.66823173 0.71070093 0
-1.7293633 -0.51907408 0.66120541 0
-1.6704817 -0.55566967 0.67351329 0
-1.6060828 -0.59605223 0.68679792 0
-1.8543588 -0.43623441 0.63449216 0
-1.7827108 -0.48609608 0.64985895 0
-1.9060339 -0.40705562 0.62317681 0
-6.2496614 1.0022388 0.73525876 0
-6.0947342 1.016593 0.74776995 0
-5.9595585 1.0317104 0.75853956 0
-5.8143525 1.0449319 0.77025533 0
-5.6641383 1.0566528 0.7824676 0
-5.5476584 1.0708212 0.7916553 0
-4.4679332 1.2143158 0.65174246 0
-4.3678846 1.2217661 0.66323715 0
-4.3664646 1.2434326 0.66199505 0
-4.3512716 1.2848389 0.66107416 0
-4.3069687 1.3648635 0.66093743 0
-4.2582703 1.4216079 0.66279483 0
-4.2220368 1.4798213 0.66293848 0
-4.1788325 1.5578902 0.66235173 0
-4.1426682 1.6042398 0.66314971 0
-4.1129599 1.6408439 0.66386092 0
5.6796641 6.5190854 0.15603264 0
5.759841 6.5490174 0.14343178 0
5.8439345 6.5590801 0.13325651 0
5.9376574 6.5821061 0.12013532 0
6.0450392 6.6229687 0.10293132 0
6.1357002 6.6607556 0.087886274 0
6.2425528 6.671576 0.074889973 0
6.1826143 6.6811013 0.079967618 0
6.2586231 6.6947222 0.069869384 0
6.3613071 6.7206001 0.0550915 0
6.4541187 6.7542868 0.040217906 0
6.5124531 6.7629805 0.032605618 0
6.5692663 6.7926288 0.022186071 0
8.7132397 7.8795295 -0.0065392852 0
8.8077841 7.9020782 -0.018015087 0
8.9244909 7.9473062 -0.034044057 0
9.0280743 8.0038338 -0.05001542 0
9.0868406 8.0119057 -0.0565615 0
9.1698208 8.0448866 -0.068084031 0
9.2731686 8.0982456 -0.083734244 0
9.3835707 8.1301851 -0.097854137 0
9.5112133 8.1783113 -0.11537129 0
9.6148472 8.2280846 -0.13072291 0
9.7107458 8.2690077 -0.14440799 0
9.77388 8.2762775 -0.15139261 0
5.9046741 -3.5324464 0.57421792 0
5.6166577 -3.4291103 0.62499243 0
5.7037382 -3.4611888 0.60962862 0
5.8151026 -3.5016074 0.58996844 0
5.3934865 -3.3611095 0.66314077 0
5.5017433 -3.393223 0.64474076 0
5.5794668 -3.4186409 0.63131547 0
5.3126082 -3.3291185 0.6774078 0
4.5361528 -3.060245 0.652596 0
4.5868378 -3.07406 0.64293116 0
4.6887264 -3.1115916 0.62234771 0
4.7603598 -3.1351376 0.60810864 0
4.3165436 -2.9967799 0.6943568 0
4.3946595 -3.0142772 0.68015587 0
4.4779162 -3.0359321 0.66456616 0
4.0118384 -2.8770602 0.61331028 0
4.0470362 -2.8801095 0.60684973 0
2.9988461 -2.8141506 0.64986676 0
3.0513582 -2.8046203 0.64463651 0
3.3245821 -2.8325787 0.72721231 0
3.3859177 -2.8189859 0.7207557 0
3.4941592 -2.8137252 0.70581418 0
3.5991266 -2.8100827 0.69050878 0
3.6985173 -2.8043573 0.6758526 0
3.7891307 -2.8045652 0.66125083 0
3.885006 -2.8326342 0.64123708 0
3.9556551 -2.8547211 0.62612766 0
-1.2515551 -0.81982815 0.75519669 0
-1.2011256 -0.84851891 0.76442033 0
-1.4267585 -0.71714973 0.7221235 0
-1.3558654 -0.75457239 0.73589522 0
-1.2998223 -0.78957927 0.74638617 0
-1.5951468 -0.61424518 0.81638265 0
-1.4410584 -0.69716704 0.71976864 0
-1.7515498 -0.51353776 0.78871316 0
-1.6676884 -0.56345081 0.80372435 0
-1.8542751 -0.44473037 0.76991308 0
-1.790908 -0.49006617 0.78155029 0
-1.9467723 -0.39013642 0.75259924 0
-1.9102097 -0.40317261 0.75949728 0
10.842137 1.3457718 0.28582168 0
-5.4196897 1.0829626 0.8019225 0
10.834463 1.457455 0.28097957 0
-5.407989 1.107049 0.80160469 0
-5.2934103 1.1193618 0.81069839 0
-5.1838675 1.1314782 0.819363 0
-5.0572429 1.1407775 0.82962954 0
-4.9563556 1.1524061 0.83756328 0
-4.8452153 1.1620311 0.84647286 0
-4.7415948 1.1718805 0.85472006 0
10.82584 1.5046499 0.27956453 0
10.840464 1.5711876 0.27422044 0
10.815869 1.6161746 0.27484301 0
10.828255 1.6665137 0.27058971 0
3.1638036 2.9679022 0.48630324 0
3.196007 2.9951885 0.47334695 0
3.2426255 3.0369308 0.45391607 0
3.3081403 3.100275 0.42523804 0
3.3494937 3.1285522 0.41036978 0
3.4045248 3.1918783 0.38337415 0
3.5107245 3.3034909 0.46591178 0
3.5598624 3.3514671 0.44663927 0
3.6129045 3.4048879 0.42541724 0
3.6543179 3.4371016 0.41112852 0
3.7214515 3.5111141 0.38266429 0
7.5894876 7.4141622 0.14934583 0
7.5657105 7.4359927 0.14914967 0
7.6732697 7.4653449 0.13602386 0
7.742918 7.498436 0.12597111 0
7.7801003 7.4918256 0.12323853 0
7.863327 7.539834 0.11028334 0
7.9213562 7.5570717 0.10300209 0
8.032424 7.6098981 0.086896643 0
8.1179085 7.6315079 0.076538444 0
8.1952076 7.6685405 0.06527257 0
8.3090048 7.720047 0.048989594 0
8.4045582 7.7492733 0.036799788 0
8.526166 7.8060613 0.019162744 0
8.6295691 7.8409986 0.0055676699 0
6.649807 -3.8022635 0.66797113 0
6.7267489 -3.8232393 0.65709662 0
6.7883711 -3.8306594 0.64872122 0
6.3429499 -3.7088003 0.71150047 0
6.4059925 -3.7216592 0.70283449 0
6.5091872 -3.7542238 0.68816125 0
6.6007009 -3.789547 0.67487359 0
6.1283107 -3.6281464 0.74236721 0
6.200881 -3.6521704 0.73207831 0
6.2743011 -3.6760435 0.72166848 0
6.0234795 -3.5869675 0.75746071 0
5.0544705 -3.2559114 0.72048569 0
5.1056538 -3.2614665 0.71265793 0
5.2132592 -3.3010349 0.69404936 0
5.2797241 -3.3203425 0.6828891 0
4.8055773 -3.1737971 0.76229823 0
4.9015036 -3.1973627 0.7468704 0
5.0011806 -3.2346382 0.72976565 0
4.6453414 -3.1070635 0.79000556 0
4.7101021 -3.135509 0.77871537 0
4.2397251 -2.9665217 0.7096858 0
4.2587652 -2.9681568 0.70655984 0
4.0109534 -2.8862717 0.75361109 0
4.1009941 -2.9189701 0.7362991 0
4.1892123 -2.9458752 0.71979713 0
3.0357862 -2.8279624 0.76595521 0
3.1023676 -2.8352838 0.75634789 0
3.196259 -2.8279898 0.74540806 0
3.2718863 -2.8204176 0.7364971 0
3.610631 -2.8163817 0.81907928 0
3.694797 -2.8216314 0.80687499 0
3.7859352 -2.8222911 0.7939955 0
3.895731 -2.8473468 0.77517164 0
3.9610205 -2.8612638 0.76395971 0
10.845785 -0.64386714 0.36841002 0
10.851932 -0.54842573 0.36453098 0
-1.4331286 -0.71550924 0.8437928 0
-1.391381 -0.73876452 0.85071778 0
10.852423 -0.43660718 0.36071575 0
-1.547204 -0.64467645 0.8246187 0
-1.4806559 -0.68096387 0.83601308 0
10.846312 -0.34044001 0.35814717 0
-1.7546288 -0.50997043 0.91890222 0
10.843307 -0.24469337 0.35511971 0
-1.8605069 -0.44806919 0.90272558 0
-1.787212 -0.49140871 0.91396785 0
10.840194 -0.14916344 0.35202584 0
-1.9305449 -0.40244153 0.8918317 0
10.852287 -0.054394692 0.34698215 0
10.837831 0.041358143 0.34511468 0
10.844257 0.15210705 0.33996287 0
10.841553 0.26315451 0.33582115 0
10.837347 0.3582232 0.33241326 0
10.838475 0.45331597 0.32825315 0
10.843348 0.54853207 0.32353428 0
10.841441 0.62784308 0.32028091 0
10.856511 0.67606306 0.31625497 0
10.838332 0.73884505 0.31567469 0
10.826783 0.86530817 0.31127897 0
10.858771 0.803509 0.31017548 0
10.832272 0.9611212 0.30607444 0
10.845707 0.96206009 0.30436626 0
10.825518 1.056121 0.30234492 0
10.805183 1.1818392 0.2986888 0
10.849484 1.1380829 0.29536125 0
10.82786 1.2480087 0.29255936 0
10.829134 1.3122101 0.28914943 0
10.833206 1.3768699 0.28532723 0
10.825895 1.4081284 0.28461373 0
-4.6492128 1.1825352 0.861956 0
-4.5371337 1.1898283 0.8710497 0
-4.4413061 1.1986581 0.87866497 0
-4.3350291 1.2161725 0.88664067 0
10.807088 1.5343444 0.28030938 0
-4.29356 1.2858969 0.88595444 0
-4.2375956 1.3847932 0.88455701 0
-4.1801634 1.4605602 0.88455677 0
-4.1376657 1.5166941 0.88445306 0
-4.1033792 1.5846717 0.88278461 0
-4.0485539 1.6261203 0.8845377 0
-4.0489259 1.6582673 0.88229752 0
-0.41429138 2.6115813 0.70816988 0
-0.33917964 2.5724158 0.72550547 0
2.8560278 2.6827471 0.61586803 0
-0.47322738 2.6401751 0.69497502 0
2.8899577 2.7127705 0.60211122 0
2.9448133 2.7631559 0.57925469 0
3.0451984 2.8584123 0.53637385 0
3.0966611 2.8937483 0.51814497 0
3.1630397 2.9754894 0.56131518 0
3.2398019 3.0517914 0.56852329 0
3.2960305 3.1102433 0.5457747 0
3.34548 3.1537457 0.52768093 0
3.3997834 3.2043848 0.50707197 0
3.4561849 3.2564652 0.48574796 0
3.6448221 3.456125 0.5446198 0
3.7064774 3.5090938 0.52501965 0
6.2754564 6.9112177 0.32277411 0
6.3419619 6.9337058 0.31447995 0
6.4367099 6.9708023 0.30205929 0
6.5447187 7.0246496 0.28655416 0
6.6191525 7.0292325 0.27950948 0
6.7218089 7.0713429 0.26572502 0
6.8235788 7.1100245 0.25236732 0
6.9267697 7.1483765 0.23888338 0
6.9875827 7.1540642 0.23280127 0
7.1089878 7.2377973 0.21258152 0
7.2220688 7.283134 0.19733982 0
7.3328953 7.3231988 0.18284675 0
7.4523659 7.3718238 0.16658477 0
5.8475432 -3.5174317 0.78273559 0
5.9128399 -3.5385675 0.77356762 0
5.6455193 -3.4427116 0.81139475 0
5.7078137 -3.46368 0.80266571 0
5.781992 -3.4952035 0.7919662 0
5.3504639 -3.3285336 0.85316277 0
5.3894 -3.330055 0.84829652 0
5.4995961 -3.3767128 0.83252871 0
5.5944295 -3.4188409 0.81883717 0
5.2191496 -3.268187 0.87207055 0
5.2989087 -3.3008747 0.86078072 0
4.524404 -3.0563362 0.81079036 0
4.5979767 -3.0861719 0.79824442 0
4.3061266 -2.9699101 0.84751326 0
4.4008002 -3.0088484 0.83152711 0
4.4699049 -3.0365825 0.8198607 0
4.046536 -2.8768601 0.88959664 0
4.1028867 -2.8849957 0.88158244 0
4.216053 -2.9333863 0.86257899 0
3.1188276 -2.8130884 0.88093573 0
3.2018952 -2.8252165 0.8696807 0
3.2977862 -2.8179717 0.85917008 0
3.4013352 -2.8081028 0.84758723 0
3.507544 -2.8114758 0.83344299 0
3.5916591 -2.8085666 0.82261282 0
3.9755049 -2.8339884 0.90247804 0
0.98600191 -2.0483217 0.92403954 0
0.79435229 -1.9540781 0.93218988 0
0.8770327 -1.991357 0.92994845 0
0.94696033 -2.0217743 0.9276365 0
0.59957266 -1.8564947 0.93579221 0
0.67952597 -1.8898973 0.93621939 0
0.7467469 -1.9209864 0.93540579 0
0.57632685 -1.8391223 0.93699151 0
-1.4362749 -0.70682925 0.96491712 0
-1.3945217 -0.70580292 0.9711076 0
-1.5436856 -0.62730306 0.94998926 0
-1.4580932 -0.67655963 0.96214318 0
-1.7215055 -0.52799946 0.92388558 0
-1.6565601 -0.5630458 0.93354672 0
-1.5998312 -0.59269774 0.94190371 0
-0.10505235 2.4255562 0.78450209 0
-0.031053424 2.4009979 0.79829812 0
0.073686361 2.3957322 0.81109321 0
0.16844416 2.3971062 0.82086176 0
0.23773539 2.3970921 0.82792222 0
0.40390682 2.4328344 0.7404052 0
0.46741045 2.4232588 0.74966782 0
0.57106638 2.4185739 0.76126623 0
0.67094064 2.4146502 0.77147591 0
0.76469028 2.4094741 0.78072482 0
0.86404693 2.409512 0.78807402 0
0.93971002 2.4056718 0.79420143 0
2.5033574 2.4311709 0.73833776 0
2.5651937 2.4366693 0.72874457 0
2.6580715 2.4615865 0.70885319 0
-0.24799168 2.514035 0.74878412 0
-0.16816688 2.4652951 0.76860565 0
2.7534688 2.5595903 0.66666377 0
-0.35981023 2.5559628 0.84033543 0
2.8652062 2.6624622 0.68684351 0
2.9247081 2.7060263 0.69983214 0
2.9701579 2.7571309 0.68066686 0
3.0496008 2.8525941 0.64555496 0
-1.0108554 2.9174972 0.84789562 0
3.121398 2.9277313 0.61655146 0
3.2318916 3.0106359 0.69434935 0
-1.1314325 2.9823358 0.8286432 0
-1.048468 2.934032 0.84244746 0
3.2657104 3.0507107 0.68136561 0
3.3118281 3.1008785 0.66460466 0
-1.3179504 3.1032953 0.79572701 0
-1.2332934 3.0464687 0.81095904 0
3.365067 3.1506834 0.64696372 0
-1.4495442 3.1706018 0.77512544 0
3.4451199 3.2461014 0.6160264 0
3.507926 3.3079357 0.59449053 0
3.558847 3.3593731 0.57673234 0
5.8419061 6.6984901 0.38396776 0
5.949059 6.7665753 0.36712193 0
6.0470972 6.8180895 0.35292208 0
6.1375003 6.8553209 0.34096813 0
6.2202702 6.8795066 0.33112842 0
6.8243904 -3.8147233 0.87470758 0
6.9115906 -3.8564758 0.864995 0
6.6063261 -3.7208204 0.89880657 0
6.7119608 -3.7656689 0.8871488 0
6.3144755 -3.6124611 0.93067771 0
6.4042745 -3.6482871 0.92084885 0
6.5103445 -3.6825392 0.90934592 0
6.1162176 -3.5337863 0.95231462 0
6.2254834 -3.5760362 0.94041747 0
4.9279346 -3.152209 0.9128629 0
5.0144358 -3.1861117 0.90082312 0
5.098711 -3.2154152 0.8892287 0
4.6944904 -3.0558169 0.94537938 0
4.7916193 -3.0958495 0.93189478 0
4.8671417 -3.1330855 0.92106462 0
4.4443798 -2.9564691 0.97960418 0
4.5171909 -2.9869812 0.96960384 0
4.6061187 -3.0231111 0.95739883 0
4.3267994 -2.9135139 0.99531406 0
4.3886995 -2.9337525 0.98718953 0
3.4012742 -2.7807734 0.97603267 0
3.5064797 -2.7703197 0.96523184 0
3.6231925 -2.7687542 0.95181668 0
3.705478 -2.7773345 0.94117796 0
3.797837 -2.7685332 0.930691 0
3.8918238 -2.8051245 0.91565865 0
3.1996808 -2.7624772 0.9994117 0
3.2984562 -2.7636566 0.98891598 0
3.4057643 -2.7545354 0.9781186 0
3.5017204 -2.7618072 0.96660376 0
3.5939889 -2.7557933 0.95647055 0
3.7063875 -2.7588866 0.94278431 0
3.7665887 -2.7555704 0.93574321 0
0.88944662 -1.9512756 1.0273204 0
0.96150142 -1.9894288 1.0239075 0
0.61696005 -1.838202 1.0296855 0
0.69065821 -1.8612479 1.0310627 0
0.78256619 -1.8931986 1.0315081 0
0.84040302 -1.9250195 1.0293812 0
0.48797572 -1.7730591 1.0297079 0
0.57490516 -1.8008007 1.0324228 0
0.64056647 -1.8300586 1.0326927 0
0.20567942 -1.6571486 1.0194659 0
0.27983165 -1.6750172 1.0246861 0
0.37732327 -1.7162548 1.0283149 0
0.44805586 -1.7332346 1.0323068 0
0.16958082 -1.6252459 1.0198534 0
0.23294926 -1.6439941 1.0241804 0
-1.5152578 -0.59709311 1.0764171 0
-1.4646536 -0.61973476 1.0822308 0
-1.6584154 -0.51505661 1.0595732 0
-1.5575848 -0.55879009 1.0714723 0
-1.8292257 -0.41111818 1.0386791 0
-1.7557117 -0.44775209 1.0477039 0
-1.6939909 -0.47902137 1.0552059 0
-1.9294419 -0.37092599 1.0263264 0
-1.8773928 -0.387714 1.0327122 0
0.78883082 2.3629498 0.88163501 0
0.90865213 2.3679383 0.88731849 0
2.5652277 2.3983512 0.8249504 0
-0.1202817 2.4063358 0.89076459 0
-0.022062302 2.3698921 0.90663886 0
0.078183174 2.361933 0.91707164 0
0.17789805 2.3636518 0.92519313 0
0.27854824 2.3922427 0.85196036 0
0.36467099 2.3888762 0.84201854 0
0.47018647 2.3873658 0.85177618 0
0.57108974 2.3858705 0.86045802 0
0.66964364 2.3810253 0.86905915 0
0.77476913 2.3812797 0.87610435 0
0.87124431 2.3809524 0.88194519 0
0.93735856 2.3704956 0.88814336 0
2.5755699 2.4157903 0.81918341 0
2.6603467 2.4305522 0.80496031 0
2.7326639 2.4966161 0.77875525 0
-0.29164875 2.5155227 0.85432768 0
-0.22538078 2.475419 0.86804527 0
2.7785611 2.5484302 0.75950915 0
2.8178651 2.5939455 0.74270701 0
-0.5117718 2.6167345 0.9319874 0
-0.44402003 2.5804815 0.94263011 0
-0.33306468 2.5436313 0.84518069 0
2.8674703 2.6305859 0.77472937 0
2.9241939 2.6690576 0.80704939 0
-0.69783139 2.7257895 0.90119565 0
-0.64110804 2.6955955 0.91012949 0
-0.56814063 2.6485591 0.92285979 0
2.9781561 2.7372885 0.7855463 0
3.0334306 2.7946692 0.76621163 0
-0.82264841 2.8027992 0.87988645 0
-0.73786807 2.7475147 0.89481783 0
3.0765452 2.8362055 0.75179803 0
3.1340961 2.9038792 0.72988218 0
-0.94102395 2.8704538 0.86045051 0
-0.88355827 2.8342628 0.87039655 0
3.1714664 2.9419057 0.71691072 0
3.2035294 2.9801068 0.70457095 0
3.3487561 3.0950742 0.77824676 0
-1.4016414 3.1099062 0.93933839 0
-1.3325479 3.0687275 0.94821751 0
-1.2591839 3.0230205 0.95788258 0
3.3980722 3.1480961 0.76299608 0
3.4540699 3.1991429 0.74730498 0
-1.5401278 3.1903353 0.92178047 0
-1.4532796 3.1351788 0.93337131 0
3.5567083 3.316083 0.71430665 0
-1.6554439 3.2584991 0.90699577 0
3.6235352 3.3801167 0.69495881 0
-1.8299024 3.3533435 0.8856023 0
-1.7762257 3.3295701 0.8915357 0
3.6944175 3.461015 0.67210078 0
6.0363688 -3.5027795 0.96099573 0
5.8151579 -3.4195998 0.98491728 0
5.9057446 -3.4506457 0.97518981 0
5.992383 -3.4897945 0.96569967 0
5.5448351 -3.3177702 1.013978 0
5.6173186 -3.3365488 1.0063707 0
5.7195125 -3.3821602 0.99524951 0
5.3161545 -3.229794 1.0384289 0
5.393517 -3.2573709 1.0302187 0
5.4928007 -3.3050892 1.0194097 0
5.033927 -3.1330602 1.0680908 0
5.1222019 -3.1534839 1.0590638 0
5.2187529 -3.1923738 1.0487888 0
5.2725883 -3.2104678 1.0431217 0
4.9326134 -3.0841637 1.0789816 0
5.0153656 -3.113219 1.0703324 0
4.2101564 -2.8661952 1.0110347 0
4.2733812 -2.8912613 1.002564 0
3.9380221 -2.7561562 1.0471835 0
4.0045929 -2.7932916 1.0378107 0
4.1017342 -2.8244183 1.0254056 0
3.2383797 -2.7068739 1.119724 0
3.3041286 -2.7079055 1.1136645 0
3.4052186 -2.7102261 1.104067 0
3.506155 -2.7068663 1.0945837 0
3.6100726 -2.7157109 1.0837339 0
3.7081625 -2.7097921 1.0741544 0
3.8064079 -2.711133 1.0638647 0
3.8936214 -2.7375603 1.0530413 0
0.92782414 -1.9288064 1.1190444 0
0.95689291 -1.9462137 1.11751 0
0.71976733 -1.8342042 1.123333 0
0.78076351 -1.8607761 1.1226254 0
0.8790375 -1.9052405 1.1205871 0
0.50229931 -1.7547941 1.1208878 0
0.58678031 -1.7714617 1.1241044 0
0.67820966 -1.8061143 1.1248565 0
0.31401646 -1.6519459 1.1194001 0
0.38271928 -1.6799922 1.1214516 0
0.46959829 -1.719407 1.1230131 0
0.19524801 -1.6016824 1.115039 0
0.26129305 -1.6224718 1.1183929 0
-1.426584 -0.59310263 1.2045143 0
-1.3852186 -0.61739272 1.2080593 0
-1.5502819 -0.52207726 1.193675 0
-1.4646482 -0.5612725 1.2011287 0
-1.7480774 -0.40976477 1.1756692 0
-1.6519763 -0.45900041 1.1844392 0
-1.9451551 -0.32231727 1.1574818 0
-1.8560429 -0.35935131 1.1657162 0
-1.7845523 -0.38497862 1.1721922 0
-0.027557373 2.3347285 1.0110567 0
0.073949814 2.3317916 1.0183439 0
0.16883254 2.332078 1.0243441 0
0.25594819 2.3369908 1.0057245 0
0.37116885 2.3469863 0.94360715 0
0.47956204 2.3544261 0.94974685 0
0.58134413 2.3519151 0.95681876 0
0.68217194 2.3501678 0.96308655 0
0.77191919 2.3523226 0.96730077 0
0.87373954 2.3499913 0.97245371 0
2.5894959 2.3776653 0.91019702 0
2.6547141 2.3920722 0.89978403 0
-0.20595479 2.4333086 0.98292828 0
-0.14315784 2.3883491 0.99448287 0
-0.052807927 2.3549018 1.0061107 0
0.28757763 2.3623297 0.93423229 0
0.38732219 2.364641 0.94122601 0
0.45785391 2.3676701 0.94553691 0
0.5722779 2.3707039 0.95229739 0
2.7100711 2.4403672 0.88276613 0
2.7517891 2.4840212 0.86827588 0
-0.34190583 2.5149908 0.96031255 0
-0.25696325 2.4647329 0.97433203 0
2.7998288 2.5395904 0.85038388 0
2.8734884 2.6030762 0.86517102 0
-0.59396648 2.6342022 1.0419126 0
-0.55324507 2.6185369 1.0459831 0
2.97015 2.6855819 0.89520538 0
-0.652578 2.6663415 1.0348177 0
3.0625591 2.7836635 0.86710763 0
-0.85013437 2.7863576 1.009361 0
-0.76665592 2.7420077 1.0193254 0
3.1498551 2.875483 0.84064484 0
-1.0063844 2.8782194 0.98955357 0
-0.93632364 2.8404434 0.99801493 0
3.2371311 2.9718783 0.81328845 0
-1.2204641 3.0074944 0.9619199 0
-1.1483361 2.9615176 0.97153836 0
-1.0851976 2.9228985 0.97975087 0
3.3037071 3.0485024 0.79182947 0
3.4891624 3.1985176 0.8646431 0
3.5484419 3.2517953 0.85086858 0
3.6154919 3.3278556 0.83294535 0
-1.7197847 3.251622 1.066025 0
3.6686213 3.3790016 0.82007152 0
-1.8462358 3.3251369 1.0550005 0
3.7322035 3.4457366 0.8038429 0
4.8278217 -3.0404153 1.0900512 0
4.8675256 -3.0488379 1.0860544 0
4.6110392 -2.9577062 1.1126049 0
4.7173219 -2.9985633 1.1015688 0
4.7693963 -3.0106628 1.0963331 0
4.324966 -2.8529935 1.1418657 0
4.4113178 -2.880259 1.1332003 0
4.5108595 -2.9204493 1.1229233 0
4.0474238 -2.7498829 1.1697798 0
4.1135845 -2.7716138 1.163257 0
4.2099872 -2.8082011 1.1535534 0
4.2764077 -2.8370748 1.1467314 0
3.5277352 -2.6642387 1.2166219 0
3.611321 -2.6581798 1.2100064 0
3.6925654 -2.6614687 1.2031457 0
3.8125315 -2.6666884 1.1927958 0
3.9143903 -2.6989169 1.1829951 0
3.9886312 -2.725029 1.1757075 0
3.6058359 -2.6491358 1.2107595 0
3.7122643 -2.6443493 1.2020428 0
3.8013177 -2.6429212 1.1945081 0
0.80866873 -1.8402746 1.2105464 0
0.89310932 -1.8753353 1.2090858 0
0.94704717 -1.9064236 1.2069863 0
0.59862602 -1.7407389 1.212882 0
0.68505251 -1.7804637 1.2124535 0
0.7607336 -1.8068309 1.2124802 0
0.39919341 -1.6540625 1.2111127 0
0.4864732 -1.6923023 1.2122133 0
0.56763208 -1.7145168 1.2140126 0
0.19013131 -1.5547382 1.2067399 0
0.27602649 -1.5984578 1.2086712 0
0.35627711 -1.6270514 1.2110581 0
0.0080798864 -1.4683892 1.2223074 0
0.07491684 -1.4876127 1.2454299 0
0.14490795 -1.5285584 1.2057316 0
-0.09310782 -1.3952361 1.2868637 0
-0.023646712 -1.4154319 1.2896881 0
-0.10752535 2.3367615 1.1042985 0
-0.017984986 2.3028986 1.1129124 0
0.079079747 2.2983229 1.1178498 0
0.18020833 2.2972252 1.1222318 0
0.29080689 2.3112161 1.0900612 0
0.37043107 2.3168349 1.0678991 0
0.47503805 2.3265998 1.0423976 0
0.5657028 2.3312573 1.0458605 0
0.67478955 2.3220956 1.0521035 0
0.77983624 2.3280306 1.0548908 0
0.85649371 2.322664 1.0583241 0
2.6164005 2.3569674 0.99291581 0
2.6687088 2.3703318 0.98524779 0
-0.22340751 2.4082267 1.0894302 0
-0.15637791 2.3671033 1.0980085 0
2.7666392 2.4724994 0.956191 0
2.8399448 2.5171092 1.0286859 0
-0.41411412 2.5355172 1.0636132 0
-0.32509041 2.4757128 1.0757246 0
2.8200116 2.5284872 0.94023561 0
2.8663101 2.5536368 0.97583187 0
2.9357355 2.6134346 1.0053115 0
-0.4625442 2.5606117 1.0579711 0
2.9828978 2.6563432 0.99445242 0
3.0382032 2.723217 0.97919315 0
-0.79978514 2.7233191 1.1451232 0
-0.74057722 2.6930377 1.1497984 0
3.0821404 2.7656341 0.96866959 0
3.1364486 2.8260057 0.95445085 0
-0.93796706 2.8076513 1.1328099 0
-0.88108039 2.7815635 1.1370138 0
3.1770887 2.8694365 0.94405997 0
3.2205124 2.91677 0.93280917 0
-1.1137822 2.9039726 1.1182053 0
-1.0493339 2.8732691 1.1231045 0
3.2729359 2.9676678 0.92014277 0
-1.3026967 3.0147789 1.1017387 0
-1.2215239 2.9717529 1.1083635 0
3.3679035 3.0692937 0.89575696 0
3.4116626 3.10028 0.88685417 0
-1.3686042 3.0529356 1.0960346 0
-1.6307739 3.1975114 1.0740087 0
-1.5536942 3.1625397 1.0797532 0
-1.4710716 3.1218674 1.0862132 0
3.5811057 3.2452595 0.97151732 0
3.6341686 3.2967248 0.96116054 0
3.7016153 3.3699439 0.94708359 0
3.7321129 3.3946381 0.94168705 0
3.3208327 -2.6654696 1.2328701 0
3.4083281 -2.6654284 1.2260863 0
3.4796958 -2.6638095 1.2204982 0
3.2555733 -2.6492906 1.2384394 0
3.2978797 -2.656328 1.2349613 0
3.4000251 -2.6500714 1.2272857 0
0.88755697 -1.8394215 1.2948984 0
0.70637059 -1.7430569 1.3218347 0
0.78527999 -1.7808565 1.3217884 0
0.86085027 -1.8038555 1.3509406 0
0.49411392 -1.6493919 1.3248218 0
0.58635104 -1.6780177 1.3390722 0
0.66649878 -1.7051769 1.3562472 0
0.228495 -1.5426391 1.2955678 0
0.29346657 -1.558928 1.3204186 0
0.38353193 -1.5912563 1.3418274 0
0.46945894 -1.6129798 1.3674712 0
0.10976267 -1.4531835 1.3800645 0
0.1815027 -1.4974145 1.3362907 0
0.2670157 -1.5179546 1.3819001 0
-0.025608301 -1.3819851 1.3780341 0
0.06251359 -1.4163288 1.3796939 0
0.23362672 2.2600074 1.2178746 0
0.29670107 2.2633686 1.2185869 0
0.37470198 2.2642155 1.2197162 0
0.49086547 2.266031 1.2210538 0
0.57054317 2.2654948 1.221976 0
2.6552541 2.3160057 1.075826 0
-0.18164968 2.3513479 1.1992732 0
-0.10917568 2.3040302 1.2059516 0
-0.012439609 2.2699158 1.2117801 0
0.084932208 2.2713556 1.2137423 0
0.18455577 2.2733212 1.2155069 0
0.2809341 2.272692 1.2172939 0
0.39431107 2.2873573 1.1704991 0
0.477229 2.2913473 1.1577272 0
0.57883084 2.2940888 1.1539093 0
0.68181348 2.293678 1.1389467 0
0.77863133 2.2960889 1.1406131 0
0.83740407 2.291229 1.1424078 0
2.6863408 2.3521445 1.0675614 0
2.7590642 2.4058509 1.1148853 0
-0.31054163 2.4394059 1.1869628 0
-0.24146438 2.3911781 1.1936711 0
2.7905312 2.4506042 1.0713524 0
2.8593154 2.5047283 1.1160717 0
-0.4234277 2.5071075 1.1771297 0
-0.36272752 2.4694586 1.182549 0
2.9087203 2.5561125 1.1061779 0
2.9564962 2.6014965 1.0971087 0
-0.59180725 2.6087992 1.1623402 0
-0.51129985 2.5623853 1.169191 0
3.00246 2.651238 1.0876451 0
3.0540242 2.6991196 1.0779538 0
-0.66029024 2.6500862 1.156317 0
3.1196733 2.7710879 1.0642912 0
3.1620255 2.8073618 1.0566653 0
3.2449875 2.9043245 1.0386478 0
3.2846699 2.9426725 1.0309672 0
3.3392277 2.9946356 1.0204836 0
3.4396639 3.1005144 0.99996012 0
3.5065432 3.1679111 0.98664063 0
3.5404983 3.201442 0.97995222 0
0.80215466 -1.7507257 1.3801352 0
0.8824876 -1.783244 1.3788803 0
0.71096432 -1.707994 1.3814522 0
0.6251117 2.265367 1.2224853 0
0.68191803 2.2638278 1.2230769 0
0.78664666 2.267297 1.2231822 0
2.6772599 2.3056324 1.1535536 0
0.70095313 2.2813206 1.2211329 0
0.76024669 2.2814739 1.2214117 0
2.7166214 2.3554561 1.14465 0
1.4117376 2.1766768 1.4968901 0
1.4975138 2.1828048 1.4930254 0
1.5986027 2.1932907 1.4887636 0
1.6976957 2.1901803 1.4847133 0
1.795954 2.1928365 1.4810323 0
1.8975691 2.1904998 1.4774524 0
1.9992937 2.1950161 1.4742311 0
2.0836596 2.1893809 1.4716661 0
2.1531115 2.1869864 1.4697232 0
2.6563926 -2.4629686 1.6944798 0
2.7212229 -2.4967933 1.6962316 0
2.8252347 -2.4954422 1.6941009 0
2.9206717 -2.4945579 1.6923212 0
3.0185356 -2.4943662 1.6907109 0
3.1203961 -2.484308 1.6883022 0
3.2169957 -2.4833977 1.686924 0
3.3128564 -2.4762938 1.68514 0
3.418788 -2.4706459 1.683508 0
3.5217957 -2.4658937 1.6821194 0
3.6242054 -2.465575 1.681246 0
3.7206481 -2.4620161 1.6802517 0
3.7758069 -2.4683998 1.680433 0
2.4409022 -2.3747211 1.6912746 0
2.5216455 -2.4105637 1.6926584 0
2.6095695 -2.4478006 1.6940998 0
2.2428467 -2.2841034 1.6880369 0
2.3166654 -2.314044 1.688821 0
2.3963211 -2.3445063 1.6895888 0
2.0267422 -2.1905832 1.685747 0
2.1130521 -2.2334175 1.687075 0
2.1906259 -2.2558243 1.6868806 0
1.8192741 -2.0930686 1.6836606 0
1.9110522 -2.1400676 1.6848408 0
1.9804603 -2.167402 1.6850697 0
1.6167202 -2.0062733 1.6833079 0
1.708168 -2.0458419 1.6833881 0
1.7725881 -2.071394 1.6833354 0
1.426587 -1.908114 1.7049056 0
1.5041265 -1.9357625 1.717941 0
1.5804504 -1.9616766 1.7207608 0
1.2151408 -1.8136733 1.7095674 0
1.30506 -1.8492385 1.7200732 0
1.3861439 -1.8719009 1.7368649 0
1.0120032 -1.719529 1.7083482 0
1.1020477 -1.7526188 1.7223088 0
1.1918406 -1.7726334 1.7438929 0
0.72274065 -1.6125842 1.6934266 0
0.81058323 -1.6277859 1.7106241 0
0.90223336 -1.6563123 1.7271029 0
0.98472542 -1.6853793 1.7467502 0
0.63867962 -1.5381432 1.7211969 0
0.6950742 -1.5652169 1.730985 0
0.77710414 -1.5868342 1.7464584 0
-0.30149353 -1.0679821 1.7246047 0
-0.23132193 -1.1048653 1.7215879 0
-0.49518585 -0.94907528 1.7322763 0
-0.42463732 -0.98717183 1.7290416 0
-0.35170197 -1.0268308 1.7257943 0
-0.60192418 -0.8741107 1.7362466 0
-0.52932918 -0.92041248 1.7332106 0
-0.78281939 -0.74610585 1.74348 0
-0.73104668 -0.78723073 1.7416245 0
-0.65563178 -0.83204955 1.7380602 0
-0.91658914 -0.67525834 1.75067 0
-0.83082604 -0.72295702 1.7461717 0
-1.0919715 -0.57061774 1.7597663 0
-1.0172132 -0.60721183 1.7553773 0
-0.95883846 -0.63654214 1.75203 0
-1.2855402 -0.46133357 1.7706041 0
-1.2268307 -0.49317977 1.7672068 0
-1.1425787 -0.53341943 1.7620802 0
-1.4360873 -0.38569874 1.7797968 0
-1.338281 -0.4337607 1.7737477 0
-1.6881027 -0.26967892 1.796092 0
-1.6211774 -0.28916597 1.7911571 0
-1.5301529 -0.33324736 1.7853649 0
-1.8287393 -0.18924607 1.8045921 0
-1.7230914 -0.23749754 1.7975942 0
-1.9077805 -0.14098281 1.8092843 0
0.5279187 2.1586893 1.5733988 0
0.60222852 2.1515622 1.5843437 0
0.70039463 2.1563296 1.5720268 0
0.80256057 2.1573644 1.5693328 0
0.89989811 2.1663303 1.5599313 0
1.0008399 2.1672459 1.5534412 0
1.1035917 2.1680863 1.5457486 0
1.1991934 2.172395 1.5414573 0
1.2989068 2.1738443 1.5382266 0
1.3932168 2.1750481 1.5409811 0
1.4979717 2.1688828 1.5544356 0
1.6007646 2.1659257 1.5535464 0
1.7014157 2.1663551 1.5492047 0
1.8015138 2.1705699 1.5455416 0
1.9019129 2.1717269 1.5421945 0
2.0040784 2.1767387 1.5355145 0
2.1066146 2.1844342 1.5171812 0
2.1998851 2.1868637 1.5029441 0
2.3037539 2.1879442 1.501014 0
2.4009852 2.1906371 1.496886 0
2.5005293 2.1910233 1.498139 0
2.6016159 2.1919372 1.4959115 0
2.6856813 2.2026501 1.5029159 0
1.2124131 2.2017105 1.5069933 0
1.2610133 2.20696 1.5045489 0
2.2729926 2.2276158 1.4671268 0
2.728343 2.2510931 1.4588989 0
2.7876935 2.2944837 1.5012399 0
2.8281755 2.3480606 1.4581689 0
2.8913713 2.4082794 1.4577264 0
2.9935668 2.5092571 1.4570631 0
3.0913877 2.6022139 1.4564437 0
3.1916928 2.7008803 1.4558556 0
3.2843013 2.7893529 1.4553243 0
3.3469658 2.8434041 1.4549547 0
3.410583 2.9062195 1.4546194 0
3.4812641 2.9780068 1.4542623 0
3.5415363 3.0415463 1.4539709 0
2.7549326 -2.4687245 1.7968336 0
2.8113322 -2.4639668 1.795832 0
2.919733 -2.460861 1.7948825 0
3.0256472 -2.44875 1.7931479 0
3.116178 -2.4501283 1.7933193 0
3.2223756 -2.4517941 1.7937398 0
3.3256648 -2.4456084 1.7934833 0
3.499362 -2.4400985 1.7941525 0
3.6222854 -2.4306967 1.7943795 0
2.533253 -2.3802118 1.7881848 0
2.6239996 -2.4093966 1.7907197 0
2.704294 -2.4467552 1.7945471 0
2.83392 -2.4447949 1.7933222 0
2.9517055 -2.4459581 1.7929425 0
3.0113435 -2.4428079 1.7924359 0
3.1278629 -2.437674 1.7918205 0
3.2300372 -2.4311016 1.7913128 0
3.3205304 -2.4301112 1.7916334 0
3.4196439 -2.427444 1.792001 0
3.5251832 -2.4202337 1.7921177 0
3.6319032 -2.4173529 1.792979 0
3.7164824 -2.4144611 1.7937394 0
2.323359 -2.2849884 1.7795877 0
2.4192181 -2.322603 1.7826377 0
2.4960756 -2.3544171 1.7854551 0
2.0517139 -2.1736951 1.7717218 0
2.1254518 -2.1962245 1.7726625 0
2.2174022 -2.2356102 1.7755073 0
2.2807484 -2.254837 1.7765878 0
1.8567902 -2.085711 1.7664629 0
1.9233423 -2.0976622 1.7990878 0
2.0045347 -2.1300921 1.7921385 0
2.0721853 -2.1597953 1.7693758 0
1.6277882 -1.9923711 1.7633299 0
1.7206419 -2.0049899 1.7885121 0
1.8099545 -2.0367122 1.8053373 0
1.8835443 -2.0531836 1.8316758 0
1.5281563 -1.9068419 1.8219104 0
1.6120975 -1.9442831 1.8075962 0
1.6908741 -1.9660333 1.8387188 0
1.2493246 -1.7888588 1.8341982 0
1.3166959 -1.8063631 1.8325903 0
1.4071689 -1.8382161 1.8321911 0
1.4811577 -1.867865 1.832804 0
1.1170549 -1.7074116 1.8307664 0
1.2049334 -1.7498037 1.8310435 0
1.2883234 -1.7770501 1.829694 0
0.90586948 -1.6173453 1.834129 0
1.0055723 -1.6599821 1.8321846 0
1.0776851 -1.6875836 1.8306658 0
0.71187437 -1.5289879 1.8390588 0
0.80214739 -1.5657662 1.8357935 0
0.85918391 -1.5853274 1.8334159 0
0.64780033 -1.4883595 1.8395723 0
0.67563689 -1.4976053 1.8380737 0
-0.276492 -1.0345267 1.8077809 0
-0.21435297 -1.069448 1.8329172 0
-0.40448713 -0.96319908 1.8158381 0
-0.32548344 -1.0139647 1.8113842 0
-0.58386922 -0.85013515 1.8269494 0
-0.51049769 -0.88681149 1.8214879 0
-0.46218467 -0.92384702 1.8190227 0
-0.70752776 -0.76939988 1.8350472 0
-0.63170302 -0.81333739 1.8295859 0
-0.8801471 -0.65406811 1.8469564 0
-0.82491231 -0.69145739 1.8430918 0
-0.75228071 -0.73103338 1.8374084 0
-1.0135471 -0.56501132 1.856771 0
-0.92631793 -0.61694622 1.8498667 0
-1.1980073 -0.47495401 1.8731842 0
-1.1144415 -0.51328576 1.8655179 0
-1.0569369 -0.53497171 1.8599888 0
-1.3974499 -0.37363458 1.8912628 0
-1.3201295 -0.40859255 1.8839214 0
-1.2533098 -0.43837175 1.8776052 0
-1.5215801 -0.30347866 1.9023869 0
-1.4416522 -0.34168357 1.8947854 0
1.1778929 2.0998373 1.7074721 0
1.3237952 2.1068563 1.6961577 0
1.4118168 2.1096578 1.6899768 0
1.5149934 2.1101973 1.6832607 0
1.6147474 2.1123965 1.6777874 0
1.7151625 2.1129048 1.6729724 0
1.7902325 2.1202571 1.6707872 0
1.8875951 2.120312 1.667585 0
2.0208969 2.1242342 1.6649609 0
2.1089244 2.1246159 1.6638018 0
2.2066014 2.1273601 1.6635612 0
2.2987297 2.127563 1.6637468 0
2.3622558 2.1286309 1.6643175 0
2.5210655 2.1386375 1.5987682 0
2.6399727 2.1353543 1.5999447 0
0.54868221 2.1134517 1.6999655 0
0.60541666 2.1170003 1.6942017 0
0.70865953 2.1204791 1.6838473 0
0.81067204 2.1246879 1.6741397 0
0.90983933 2.125762 1.6649693 0
1.0099256 2.1328156 1.656652 0
1.113513 2.1314113 1.6479717 0
1.2124853 2.1351414 1.6524004 0
1.3034713 2.135072 1.6606992 0
1.4060547 2.1376369 1.6553721 0
1.5049932 2.1401331 1.6508267 0
1.6047164 2.1426914 1.6432271 0
1.7039329 2.1442146 1.6435016 0
1.8064654 2.1488459 1.6376703 0
1.9079691 2.1430674 1.6350579 0
2.0058224 2.1452534 1.6314203 0
2.104773 2.1501846 1.6148548 0
2.2027791 2.1500669 1.6273657 0
2.2978284 2.1524904 1.6225585 0
2.4048223 2.1564813 1.5994985 0
2.506567 2.162462 1.600413 0
2.6011543 2.1596663 1.6011486 0
2.6943717 2.1750648 1.6035823 0
2.76755 2.2324505 1.6088213 0
2.8293877 2.2940428 1.6142082 0
2.8831587 2.3451781 1.6187587 0
2.9055376 2.3851244 1.5670822 0
2.9770217 2.4309807 1.6265442 0
2.9928951 2.4790645 1.5433997 0
3.0568261 2.5394528 1.5459266 0
3.1073346 2.5821292 1.5477663 0
3.160255 2.6362078 1.5500314 0
3.2079072 2.6792021 1.5518878 0
3.2811337 2.7533584 1.555032 0
3.3049245 2.7635128 1.5555906 0
3.3600824 2.8233991 1.5581133 0
3.4183736 2.8769705 1.5604663 0
3.4684083 2.9256673 1.5625838 0
2.5722668 -2.3582935 1.8839157 0
2.6341345 -2.3762398 1.8866841 0
2.7300279 -2.4123263 1.8925304 0
2.8337889 -2.4155729 1.8935331 0
2.9322052 -2.4126606 1.893916 0
3.0234556 -2.4013293 1.8932569 0
3.121732 -2.4004457 1.8946309 0
3.2195797 -2.3935955 1.8954128 0
3.3204432 -2.3871698 1.8966596 0
3.4252806 -2.3824956 1.8985914 0
3.5279694 -2.3791244 1.9009837 0
3.6044858 -2.3694167 1.9019198 0
2.3580818 -2.2680275 1.8708432 0
2.4193954 -2.2845972 1.8729465 0
2.5181422 -2.3261352 1.8789799 0
2.5822363 -2.3405025 1.8810526 0
2.1445255 -2.1780941 1.8595043 0
2.2169843 -2.1937082 1.8682568 0
2.3107681 -2.2441306 1.8675392 0
1.9592923 -2.0698328 1.9323823 0
2.0317712 -2.1054599 1.8965907 0
2.1151569 -2.1332777 1.9041036 0
2.194612 -2.1510446 1.9440732 0
1.7633944 -1.9792074 1.9206738 0
1.8187437 -2.0002391 1.9228315 0
1.907122 -2.0319235 1.9262754 0
1.989738 -2.0557861 1.9288033 0
1.5469396 -1.8867373 1.9124063 0
1.619693 -1.9071462 1.9126855 0
1.7122564 -1.9471037 1.9163795 0
1.787591 -1.971664 1.9182198 0
1.3553122 -1.7955176 1.9062647 0
1.4131877 -1.8169478 1.9066211 0
1.5087008 -1.854699 1.9082112 0
1.5679153 -1.8730854 1.9085343 0
1.1386275 -1.7070256 1.9059246 0
1.2096465 -1.7207363 1.9026551 0
1.3050711 -1.7609376 1.9030958 0
0.94288182 -1.606315 1.9052116 0
0.99244225 -1.6235467 1.9035078 0
1.1130344 -1.6771091 1.9024147 0
1.1862439 -1.6874794 1.8980877 0
0.72437835 -1.5078732 1.9112132 0
0.80337811 -1.5416541 1.9082531 0
0.89462501 -1.5842032 1.906114 0
0.67829764 -1.4832448 1.9123417 0
-0.19455707 -1.0437113 1.9329752 0
-0.15010476 -1.0594723 1.9676151 0
-0.38478613 -0.93534648 1.9139547 0
-0.30775499 -0.97349411 1.9321409 0
-0.23389196 -1.0055918 1.9506077 0
-0.50223374 -0.85587972 1.9101789 0
-0.40891981 -0.89939481 1.9495282 0
-0.33064544 -0.92211902 1.9809327 0
-0.6857872 -0.74223363 1.9267832 0
-0.6120193 -0.78641802 1.9198066 0
-0.55782759 -0.82760704 1.91562 0
-0.80328488 -0.65975654 1.9373572 0
-0.73336494 -0.70509964 1.9306661 0
-0.99214089 -0.55713409 1.9579569 0
-0.91713142 -0.58178008 1.9483564 0
-0.84925568 -0.62435979 1.941402 0
-1.1731645 -0.44839725 1.9778883 0
-1.1168085 -0.48843715 1.9720526 0
-1.0350614 -0.53071278 1.9625406 0
-1.3213518 -0.37645826 1.9960557 0
-1.2320646 -0.41821486 1.9849539 0
-1.5978976 -0.26871198 1.9097984 0
-1.8011255 -0.16812795 1.9293901 0
-1.7264336 -0.18951251 1.921303 0
-1.6479592 -0.23384233 1.914031 0
-1.91023 -0.1035806 1.9395329 0
-1.8442539 -0.14140894 1.9333214 0
-5.4491124 0.6080243 2.0927935 0
-5.3194609 0.64013231 2.0800049 0
-5.1831145 0.67053878 2.0666952 0
-5.0275879 0.68648481 2.052242 0
-4.9120584 0.70368099 2.0413048 0
-4.7789621 0.71898919 2.0288808 0
-4.6622133 0.73444057 2.01791 0
-4.5943971 0.75245082 2.0112002 0
-4.5709753 0.81791627 2.0066841 0
-4.5222735 0.89196688 1.9996388 0
-4.4942923 0.94487137 1.995245 0
-4.4418831 1.016781 1.9880378 0
-4.408814 1.0680302 1.9833083 0
-4.3773832 1.129895 1.9783924 0
-4.3281217 1.1997955 1.9716561 0
-4.2913055 1.2487975 1.9667647 0
-4.2498231 1.3291237 1.9604684 0
-4.2270408 1.3903441 1.9564861 0
-4.1845679 1.436695 1.9512759 0
-4.1488314 1.5054365 1.9459894 0
-4.1130247 1.5520439 1.9414138 0
-4.0675669 1.6282126 1.9351422 0
-4.034071 1.6958656 1.9302167 0
-3.9901419 1.7388822 1.9251341 0
-3.9475679 1.8031034 1.9195971 0
-3.9130051 1.8581551 1.9150577 0
-3.8709583 1.9320849 1.9093984 0
0.60526967 2.0906284 1.7685775 0
0.7312988 2.0835819 1.7893057 0
0.81162775 2.0850725 1.7940456 0
0.91231292 2.0849602 1.802985 0
1.015619 2.0905457 1.7783027 0
1.1096554 2.092854 1.7765821 0
1.2112675 2.0989311 1.77159 0
1.3116375 2.0943234 1.7615743 0
1.4105768 2.1002226 1.75419 0
1.5155053 2.1019843 1.7467989 0
1.6086156 2.1053095 1.7414919 0
1.7104015 2.1070211 1.7364571 0
1.8086603 2.1117246 1.7331246 0
1.9081994 2.1133385 1.7303365 0
2.0092261 2.1157174 1.7287033 0
2.1112049 2.114893 1.7276598 0
2.2088945 2.1153669 1.7278442 0
2.308732 2.1151943 1.7289414 0
2.414341 2.1190128 1.7099884 0
2.514142 2.1233547 1.7032661 0
2.6118619 2.1243811 1.7023923 0
2.6834962 2.1298623 1.7143669 0
-3.8637886 2.0266957 1.9062887 0
0.62140262 2.1015844 1.7675433 0
0.70039511 2.1061268 1.758335 0
0.81655478 2.1065676 1.7448409 0
0.90097541 2.1104295 1.7537323 0
1.0086513 2.1138084 1.7250189 0
1.1109154 2.1203039 1.7203829 0
1.2032714 2.1243937 1.7154226 0
1.2621229 2.1394858 1.7046337 0
1.4175667 2.1195004 1.7565409 0
1.4787991 2.122927 1.7524521 0
1.6794513 2.1234801 1.7404054 0
1.8051273 2.1303923 1.7361062 0
2.3433404 2.1459706 1.6660472 0
2.4147201 2.1461723 1.6668817 0
2.4691174 2.1516173 1.6683017 0
2.5613732 2.1432493 1.669347 0
2.7264519 2.1677146 1.6913564 0
2.7787027 2.2191033 1.6836195 0
-3.896759 2.1348691 1.9063929 0
2.8342564 2.2762556 1.6912851 0
2.9004402 2.3326511 1.6993276 0
-3.910934 2.2387533 1.9050524 0
2.9502306 2.3726635 1.7051823 0
3.0036244 2.4244719 1.7123626 0
-3.9397783 2.3381507 1.9051585 0
3.0332394 2.4748027 1.6599115 0
3.0708189 2.5171642 1.6344351 0
-3.9590454 2.4472237 1.9042821 0
-3.9387355 2.4169369 1.9032331 0
3.1358085 2.5836368 1.6403778 0
3.1810629 2.6141279 1.6435201 0
-3.9776034 2.5347381 1.9039017 0
3.2380416 2.6716194 1.648718 0
3.2928431 2.7231286 1.6534961 0
-3.9984193 2.6361639 1.9034611 0
3.3850937 2.8129029 1.6617637 0
-4.0298471 2.7318072 1.9041055 0
-4.0839877 2.8511081 1.9062448 0
-4.0499721 2.7880957 1.9046451 0
-4.1113062 2.9366078 1.9068465 0
-4.134963 3.0218334 1.9071813 0
-4.1813545 3.1190603 1.9092402 0
-4.1520905 3.1052604 1.9070362 0
-4.2093935 3.196404 1.9101589 0
10.897734 -2.5155928 1.7432826 0
10.92128 -2.4012868 1.7371768 0
10.91578 -2.2961533 1.7312472 0
2.663945 -2.3571613 1.9846061 0
2.7279763 -2.3758533 1.9890589 0
2.828826 -2.3744898 1.9905212 0
2.9322069 -2.3728507 1.9924785 0
3.0279417 -2.360944 1.9928081 0
3.1329241 -2.3634143 1.9965476 0
3.2321236 -2.3599222 1.9994388 0
3.3349981 -2.3468833 2.0011899 0
3.4327173 -2.341311 2.0044971 0
3.644449 -2.3808582 1.9048488 0
3.7005112 -2.3711431 1.9053313 0
10.914358 -2.1928811 1.7255319 0
2.4328036 -2.2626252 1.9647933 0
2.5245156 -2.2965643 1.9716971 0
2.6135674 -2.3274074 1.9783314 0
3.2691376 -2.3283381 1.9951386 0
10.918669 -2.0917435 1.7200694 0
2.2418475 -2.1741688 1.9481573 0
2.3176942 -2.1881204 1.98844 0
2.4150977 -2.2407074 1.9604805 0
10.907197 -1.9871327 1.7142473 0
2.0536287 -2.064244 2.0164485 0
2.1287441 -2.0879295 2.0210001 0
2.2242267 -2.1273563 2.0295343 0
10.914814 -1.8878763 1.709042 0
1.8489524 -1.972347 1.9998085 0
1.9171486 -2.0019743 2.0047796 0
2.0082457 -2.0384228 2.0112131 0
2.0883605 -2.0595744 2.0148098 0
10.909696 -1.7860174 1.703567 0
1.6458718 -1.8869911 1.9881293 0
1.720124 -1.9163382 1.9915628 0
1.8036346 -1.9507141 1.9962863 0
10.905994 -1.6851039 1.6982166 0
1.4316559 -1.7919556 1.9920239 0
1.5157942 -1.8188757 2.005928 0
1.5947001 -1.8532559 1.9917167 0
10.90782 -1.5858521 1.6930879 0
1.2262764 -1.7044467 1.981535 0
1.3143623 -1.7263042 2.0127366 0
1.4036851 -1.7562317 2.0324318 0
1.4950328 -1.7623521 2.0456924 0
10.90872 -1.4868033 1.6880095 0
1.0222595 -1.6079681 1.991828 0
1.1112521 -1.6356041 2.0101178 0
1.2005087 -1.6646746 2.0239422 0
1.2628045 -1.6722478 2.0411282 0
10.89367 -1.3851959 1.6826148 0
0.8216629 -1.5078307 1.9977785 0
0.9046846 -1.5407319 2.0084207 0
0.99648988 -1.568342 2.0288453 0
10.902292 -1.2884359 1.6778758 0
0.72785997 -1.4406011 2.0511477 0
0.79014015 -1.4750438 2.0291736 0
10.917726 -1.1929909 1.6733589 0
10.912877 -1.0944102 1.6684302 0
10.897066 -0.99466956 1.6633295 0
10.898929 -0.8979333 1.6586998 0
10.902494 -0.80160171 1.654169 0
10.889814 -0.70362389 1.6493597 0
-0.48558462 -0.84043413 1.9987161 0
-0.41296744 -0.85690534 2.0467691 0
-0.32652962 -0.89802384 2.0670574 0
10.894908 -0.60797626 1.6449898 0
-0.60626888 -0.75619161 2.0112567 0
-0.50686276 -0.79830223 2.0377266 0
-0.45333362 -0.81710714 2.082715 0
10.89491 -0.49595404 1.6398469 0
-0.71177316 -0.67838967 2.0225961 0
-0.65592122 -0.72712463 2.0172575 0
10.892256 -0.38395762 1.6347312 0
-0.90647137 -0.56210804 2.0478036 0
-0.81314337 -0.61381936 2.0351 0
10.890642 -0.28818923 1.6304252 0
-1.0968277 -0.46339589 2.0752773 0
-1.0148565 -0.51066476 2.0637112 0
10.883724 -0.19236375 1.6260852 0
-1.3775967 -0.3539657 2.0033782 0
-1.2140926 -0.39918429 2.0925016 0
-1.1509918 -0.4282113 2.0827262 0
10.884759 -0.12887986 1.6233261 0
-1.5032647 -0.27812994 2.0182657 0
-1.4186364 -0.32136467 2.0076883 0
-1.7179129 -0.1649701 2.0454135 0
-1.6263006 -0.21365577 2.033766 0
-1.5490446 -0.25014237 2.0237477 0
-1.9105202 -0.065902591 2.070502 0
-1.8255188 -0.10850997 2.0593135 0
-1.7581433 -0.14511743 2.0506587 0
10.897325 0.25161529 1.6073904 0
10.883924 0.31505358 1.6045693 0
10.890904 0.4102118 1.600811 0
10.883282 0.50516415 1.5968798 0
10.883533 0.60034639 1.5931174 0
10.877705 0.69524908 1.5893214 0
10.886374 0.80679345 1.5851718 0
10.898561 0.75973523 1.5871644 0
10.865586 0.91675758 1.5806861 0
10.898573 0.89773929 1.5819273 0
10.883751 1.0453976 1.5762007 0
10.892578 0.99824673 1.5780797 0
10.874873 1.1084518 1.5737576 0
10.867688 1.2194643 1.5696411 0
10.887846 1.1735042 1.5716059 0
10.878229 1.3005745 1.5669258 0
10.886345 1.3014597 1.5670245 0
10.874207 1.412388 1.5629547 0
10.886076 1.3656168 1.5647657 0
10.876952 1.4609443 1.5613211 0
10.882323 1.5099347 1.5597281 0
10.868683 1.6048341 1.556307 0
10.884352 1.5585986 1.5581062 0
10.856903 1.7161771 1.5524242 0
10.880995 1.6982921 1.5533885 0
10.88093 1.8173854 1.5494897 0
10.864241 1.9122459 1.546188 0
10.880505 1.9151435 1.5463455 0
10.859326 1.9929806 1.5435624 0
10.869214 2.0439425 1.542118 0
10.869073 2.1095998 1.5400865 0
10.873396 2.2093787 1.5371088 0
0.63541436 2.061918 1.8807817 0
0.70825076 2.0622561 1.8767184 0
0.81938851 2.0588143 1.8840692 0
0.91905558 2.0612974 1.8698897 0
1.0198805 2.0653541 1.861382 0
1.118192 2.0646813 1.8743807 0
1.216903 2.0652668 1.8654804 0
1.3167744 2.0687675 1.8562441 0
1.4155157 2.0736475 1.849663 0
1.516075 2.0768061 1.8397754 0
1.6150922 2.0806026 1.8335674 0
1.7134438 2.0822942 1.828446 0
1.8144516 2.0814254 1.8239442 0
1.9158804 2.0862255 1.8220582 0
2.0150018 2.0843287 1.822282 0
2.1149912 2.0859389 1.818532 0
2.2148511 2.0867841 1.8242185 0
2.3132875 2.0876875 1.8246943 0
2.4121001 2.0836 1.8264803 0
2.5119762 2.0930922 1.8078411 0
2.6164689 2.0926905 1.805336 0
2.7054815 2.1107721 1.8138893 0
10.876667 2.3093925 1.5341618 0
2.7489316 2.1672442 1.7513449 0
2.8053493 2.2052894 1.8009441 0
10.86972 2.4076266 1.5311705 0
2.8582969 2.270072 1.7705441 0
2.9082332 2.3117917 1.7787137 0
10.868534 2.5075581 1.5282671 0
3.0013759 2.3933265 1.7945313 0
3.065135 2.4519968 1.8057851 0
10.871559 2.6090646 1.5254335 0
3.1128135 2.5133898 1.7640749 0
10.837648 2.6676669 1.5233107 0
10.853385 2.7224438 1.5220242 0
3.2085488 2.6124649 1.7391337 0
10.868511 2.8113933 1.5198165 0
3.3039103 2.7020807 1.7519095 0
10.864106 2.9125175 1.5170493 0
3.3728004 2.773253 1.7617655 0
10.863412 3.0152822 1.5143446 0
10.866695 3.1199005 1.5117009 0
10.841677 3.1988051 1.5093703 0
10.850084 3.271235 1.5076851 0
10.960352 -4.776907 1.8836422 0
10.938325 -4.702251 1.8784795 0
10.941385 -4.6625333 1.8758808 0
10.948145 -4.5838714 1.8707628 0
10.929899 -4.4924545 1.8645843 0
10.941074 -4.4577022 1.8624243 0
10.958294 -4.3857832 1.8579175 0
10.932019 -4.2721467 1.8502889 0
10.936752 -4.1950245 1.8453736 0
10.948898 -4.1022711 1.8395675 0
10.932981 -3.9968586 1.8326904 0
10.934603 -3.9006655 1.8266325 0
10.915016 -3.8147442 1.8210145 0
10.937553 -3.7675023 1.8183181 0
10.94343 -3.693903 1.8138067 0
10.938293 -3.5970464 1.8077586 0
10.932738 -3.4821582 1.8006415 0
10.937219 -3.3909171 1.7951366 0
10.92477 -3.2936237 1.7891012 0
10.92966 -3.1855524 1.782676 0
10.920938 -3.0913372 1.776955 0
10.9261 -3.0029361 1.7717962 0
10.919331 -2.8928823 1.7652555 0
10.918343 -2.7857509 1.7590158 0
10.918108 -2.6972096 1.7539074 0
10.918343 -2.6094167 1.7488892 0
10.92923 -2.4730792 1.7413127 0
2.7645268 -2.3457379 2.0868666 0
2.8648381 -2.3424585 2.0893211 0
2.9225893 -2.3370409 2.0902407 0
3.040329 -2.3385227 2.0954525 0
3.2180531 -2.3332477 2.1031332 0
3.5330241 -2.335134 2.0082045 0
3.6471324 -2.3291674 2.0130577 0
3.6893716 -2.3252285 2.0146747 0
2.5442305 -2.2634776 2.0631554 0
2.6338263 -2.2956443 2.0722291 0
2.7259278 -2.3256726 2.0812826 0
2.82582 -2.3309891 2.0854578 0
2.9370608 -2.3226819 2.0876393 0
3.034513 -2.3259511 2.0924647 0
3.128613 -2.3195729 2.0955451 0
3.2353606 -2.3153369 2.1002834 0
3.3350554 -2.3036916 2.103627 0
3.4235647 -2.2849214 2.1053097 0
3.5773828 -2.3119256 2.0064001 0
3.6044278 -2.3120463 2.0078354 0
2.3622458 -2.1693182 2.0930774 0
2.4195342 -2.192153 2.082958 0
2.4878652 -2.2361243 2.0560205 0
2.1487763 -2.0693986 2.1058214 0
2.2222776 -2.0941353 2.1124656 0
2.3081906 -2.1269464 2.1217828 0
1.9368351 -1.9818374 2.0849576 0
2.0238805 -2.0112927 2.0912731 0
2.0982454 -2.0420742 2.0987275 0
1.654287 -1.8790747 2.0676441 0
1.7238237 -1.8831164 2.0771673 0
1.810257 -1.9122901 2.0989418 0
1.8917416 -1.9565582 2.0791948 0
1.5354285 -1.7993865 2.0999079 0
1.6191397 -1.8271116 2.1008363 0
1.7117443 -1.8480983 2.1315029 0
1.3346052 -1.6932318 2.1183743 0
1.4178861 -1.7238748 2.1200058 0
1.4983172 -1.7598649 2.1244278 0
1.1209912 -1.5969671 2.1137087 0
1.2111852 -1.6357657 2.1142585 0
1.2893887 -1.6640801 2.1141207 0
0.92602974 -1.5063869 2.1148753 0
1.0115359 -1.5444353 2.1131303 0
1.0951097 -1.5735443 2.1100965 0
0.82637501 -1.460562 2.1179914 0
0.87968189 -1.4759687 2.1135199 0
-9.4666719 -0.96764815 2.518935 0
-0.584517 -0.73668736 2.1006861 0
-0.53305948 -0.7629624 2.0928349 0
-0.69949722 -0.65083027 2.1156843 0
-0.62270141 -0.69662535 2.1041877 0
-0.88766372 -0.54480547 2.1459789 0
-0.81265628 -0.58371192 2.1333323 0
