# .PCD v0.7 - Point Cloud Data file format
VERSION 0.7
FIELDS x y z intensity
SIZE 4 4 4 4
TYPE F F F F
COUNT 1 1 1 1
WIDTH 1418
HEIGHT 1
VIEWPOINT 0 0 0 1 0 0 0
POINTS 1418
DATA ascii
-3.7178483 -46.88937 9.2437134 0
-3.5604277 -46.900543 9.2400341 0
-3.406661 -46.944889 9.2382441 0
-3.248436 -46.948727 9.2343378 0
-1.9777988 -46.880146 9.2009573 0
4.4554181 -46.892738 9.1366873 0
-4.6562128 -46.768932 9.2646952 0
-4.4992394 -46.78466 9.2607422 0
-4.3437881 -46.811832 9.2575073 0
-4.1865277 -46.825069 9.2535915 0
-4.031702 -46.857765 9.2508297 0
-1.8121452 -46.770039 9.1917572 0
4.292769 -46.80471 9.1319685 0
6.1058898 -47.630196 9.1812887 0
6.266777 -47.630692 9.182416 0
5.9409328 -47.58601 9.177969 0
6.4225745 -47.582134 9.1810656 0
6.5797424 -47.548107 9.1805611 0
5.7696061 -47.468262 9.1708984 0
6.734664 -47.495247 9.1791573 0
6.8955841 -47.495888 9.1806393 0
7.0496988 -47.438793 9.1791859 0
7.2087793 -47.423996 9.1800375 0
9.1525469 -47.433601 9.2070284 0
9.3170528 -47.442509 9.2102957 0
9.4811764 -47.447727 9.21346 0
5.5973892 -47.330105 9.1628542 0
7.365592 -47.391113 9.1800261 0
7.5229712 -47.363239 9.1803627 0
7.6820765 -47.348621 9.1814842 0
8.3256798 -47.335129 9.1892233 0
8.4882822 -47.340702 9.1918535 0
8.8210211 -47.395275 9.1996851 0
8.9867449 -47.415173 9.2033501 0
7.8349266 -47.288235 9.1802855 0
7.9958301 -47.286797 9.1822748 0
8.1593323 -47.302277 9.1852455 0
8.6454573 -47.310001 9.1926565 0
-6.2758923 -46.88554 9.3244581 0
-6.1179152 -46.904434 9.319768 0
-5.9568844 -46.90451 9.3141117 0
-5.8038902 -46.953213 9.3112659 0
-5.6446729 -46.963573 9.306365 0
-5.4829626 -46.957146 9.3006172 0
-7.0678225 -46.796925 9.3495884 0
-6.9056921 -46.795383 9.3432884 0
-6.7454057 -46.802738 9.3375874 0
-6.5832095 -46.798599 9.3313293 0
-6.4299383 -46.843952 9.3279581 0
-9.5091372 -46.738708 9.4509659 0
-9.347044 -46.751919 9.4440737 0
-9.1799717 -46.743359 9.435997 0
-9.0123959 -46.731224 9.4278126 0
-8.849185 -46.736557 9.4207563 0
-8.6796417 -46.712894 9.4121037 0
-8.5122375 -46.696938 9.4040051 0
-8.3502979 -46.704273 9.3973637 0
-8.1956768 -46.744728 9.3927374 0
-8.0292406 -46.729568 9.3849831 0
-7.8693628 -46.744286 9.3790522 0
-7.7062817 -46.742699 9.3722763 0
-7.5485525 -46.766575 9.3670578 0
-7.3898273 -46.78513 9.3616247 0
-7.2275138 -46.784695 9.355197 0
9.8233719 -47.531693 9.2239828 0
9.98629 -47.525074 9.2267971 0
9.6541233 -47.501583 9.2193041 0
10.144962 -47.494934 9.228446 0
10.307361 -47.484337 9.2312288 0
10.469792 -47.473183 9.2340746 0
10.630614 -47.45319 9.236537 0
10.954294 -47.421898 9.2421989 0
12.45941 -47.457897 9.2818842 0
10.786028 -47.405975 9.2376251 0
11.112206 -47.386593 9.2441082 0
11.272705 -47.363537 9.246767 0
11.439096 -47.367397 9.2509699 0
11.600092 -47.345444 9.25387 0
11.762441 -47.32914 9.2571697 0
11.929551 -47.333202 9.2616673 0
12.10602 -47.376583 9.2684002 0
12.278199 -47.399185 9.274106 0
-11.010695 -46.742462 9.5248356 0
-10.847215 -46.758823 9.51723 0
-10.67744 -46.751152 9.5082703 0
-10.51532 -46.770832 9.5010662 0
-10.354732 -46.795734 9.4942732 0
-10.187636 -46.795048 9.486043 0
-10.01615 -46.775974 9.4768143 0
-9.8447657 -46.7556 9.467617 0
-9.6819639 -46.76807 9.4604826 0
-11.995642 -46.643364 9.5725012 0
-11.832208 -46.664143 9.5645695 0
-11.659723 -46.65332 9.5547895 0
-11.499695 -46.684189 9.5476818 0
-11.33813 -46.709297 9.5403156 0
-11.167744 -46.702526 9.5311003 0
-12.476348 -46.546391 9.5947247 0
-12.318775 -46.587742 9.5877867 0
-12.155102 -46.608856 9.5796795 0
-12.638721 -46.520103 9.602704 0
76.894669 -38.628933 9.5607061 0
76.887215 -38.301273 9.5820723 0
76.983566 -38.024975 9.6073503 0
77.318153 -37.863132 9.6417189 0
72.776421 -49.508507 8.6173973 0
72.678368 -49.084686 8.6350546 0
72.64476 -48.706261 8.654356 0
72.663902 -48.364532 8.6750498 0
72.772232 -48.082504 8.6981621 0
13.515819 -47.633919 9.3211231 0
13.855886 -47.632065 9.331686 0
14.02915 -47.641365 9.3376846 0
12.818658 -47.553768 9.2965889 0
12.989561 -47.562862 9.3019667 0
13.168158 -47.60099 9.3090429 0
13.340312 -47.611732 9.3147182 0
13.681318 -47.616375 9.3254356 0
14.186185 -47.590183 9.340416 0
14.359081 -47.596165 9.3464289 0
12.637636 -47.501358 9.2889385 0
-14.200299 -46.546593 9.6961107 0
-14.02984 -46.557377 9.6861591 0
-13.863347 -46.5788 9.6770039 0
-13.694493 -46.59251 9.6674576 0
-13.507897 -46.552231 9.6545649 0
-13.338576 -46.562111 9.6450033 0
-13.159664 -46.541649 9.6336203 0
-12.987715 -46.541073 9.623621 0
-12.81596 -46.539906 9.6136913 0
-14.717425 -46.524509 9.7273054 0
-14.537456 -46.511654 9.7154703 0
-14.369481 -46.531246 9.7058735 0
72.8452 -49.915127 8.5989304 0
15.434141 -47.730564 9.3902674 0
15.607526 -47.727985 9.3965397 0
15.779345 -47.719196 9.4025593 0
15.956644 -47.726994 9.4096317 0
14.540277 -47.630226 9.3541174 0
14.71552 -47.641411 9.3606329 0
14.896126 -47.669655 9.3682117 0
15.074996 -47.690083 9.3754616 0
15.250299 -47.696808 9.3820467 0
16.121218 -47.693142 9.4144258 0
16.290474 -47.673538 9.4201374 0
16.465784 -47.671902 9.42698 0
-15.814522 -46.616604 9.801959 0
-15.632634 -46.607586 9.7896194 0
-15.449678 -46.594303 9.7771206 0
-15.264383 -46.573242 9.7642336 0
-15.080399 -46.554039 9.7516022 0
-16.29693 -46.475914 9.8283434 0
-16.13254 -46.513958 9.8188515 0
-15.971402 -46.559898 9.8099947 0
-14.898579 -46.539124 9.7393808 0
-16.620598 -46.385792 9.8466845 0
-16.459274 -46.432297 9.8375626 0
-16.941639 -46.287952 9.8648949 0
-16.78697 -46.35133 9.8567333 0
16.637003 -47.656612 9.4331436 0
16.801781 -47.621025 9.4382372 0
16.974436 -47.608566 9.444768 0
17.490778 -47.560993 9.4643965 0
17.675316 -47.578865 9.4731274 0
18.381527 -47.547398 9.5031166 0
18.571959 -47.574398 9.5129633 0
18.740778 -47.541828 9.5193777 0
-18.423763 -46.329311 9.9726839 0
-18.226294 -46.301182 9.9571037 0
-18.04763 -46.314236 9.9445925 0
-17.859938 -46.305412 9.9306631 0
-17.682638 -46.319374 9.9184704 0
-17.487511 -46.290367 9.9033947 0
-17.307987 -46.296608 9.8909235 0
-17.124565 -46.292355 9.8778467 0
18.930222 -47.563278 9.5291309 0
19.106903 -47.549614 9.5368967 0
19.287802 -47.545914 9.5453749 0
19.46443 -47.530098 9.553236 0
19.653126 -47.543991 9.5630074 0
19.84487 -47.564014 9.5732784 0
20.018553 -47.537434 9.5808296 0
20.203711 -47.538395 9.5901756 0
20.390882 -47.542988 9.5998678 0
-19.597738 -46.438663 10.065041 0
-20.108198 -46.313774 10.099924 0
-19.943806 -46.368 10.089113 0
-19.72669 -46.310833 10.070207 0
-19.347454 -46.307343 10.041016 0
-19.167286 -46.324017 10.027972 0
-18.980179 -46.324543 10.013887 0
-18.793713 -46.325191 9.9999504 0
-18.616892 -46.346008 9.9875956 0
20.590204 -47.575577 9.6114054 0
20.786865 -47.599892 9.62257 0
20.956089 -47.557457 9.6297226 0
21.132109 -47.530506 9.6379433 0
21.337902 -47.571995 9.6505537 0
21.51948 -47.555649 9.6596804 0
21.717632 -47.57613 9.6712446 0
21.907949 -47.577225 9.6817179 0
-20.490486 -46.31303 10.129948 0
-20.872652 -46.306862 10.160144 0
-20.67609 -46.299549 10.144189 0
-20.286791 -46.288326 10.112992 0
22.764984 -47.777191 9.7374382 0
22.979723 -47.822716 9.7514658 0
22.12241 -47.631058 9.6956644 0
22.329649 -47.666573 9.7085972 0
22.544376 -47.716591 9.7226019 0
23.191729 -47.860249 9.76513 0
23.369482 -47.823174 9.7741098 0
23.538288 -47.766628 9.7819366 0
23.718058 -47.732571 9.7913408 0
23.899412 -47.701035 9.8010292 0
24.058498 -47.623146 9.807786 0
24.230364 -47.571186 9.8163509 0
24.404814 -47.523964 9.8253431 0
24.811367 -47.938847 9.8652458 0
-0.85754943 -44.163464 10.535631 0
-0.70805728 -44.118439 10.528762 0
-0.56099355 -44.115387 10.525699 0
-0.4133215 -44.0975 10.521425 0
0.46703386 -44.079521 10.50575 0
0.6133399 -44.087589 10.504455 0
0.76003164 -44.076313 10.501559 0
1.0527897 -44.083946 10.498712 0
1.1991968 -44.086857 10.497355 0
1.3456748 -44.076473 10.494934 0
1.492046 -44.097832 10.495385 0
1.6385119 -44.098347 10.494112 0
1.7849114 -44.086601 10.491865 0
1.9314494 -44.09766 10.491711 0
2.0781584 -44.115383 10.492235 0
2.2247152 -44.115417 10.491312 0
2.3716838 -44.13554 10.49224 0
2.5168893 -44.072559 10.48601 0
2.6629355 -44.056664 10.48399 0
3.9826119 -44.062355 10.483207 0
-0.26496601 -44.059422 10.515478 0
-0.11731207 -44.031559 10.510532 0
0.029180765 -44.02998 10.507998 0
0.17471325 -44.056995 10.508075 0
0.32093596 -44.065212 10.506596 0
0.90669322 -44.060562 10.498372 0
2.8079157 -44.008015 10.479212 0
2.9542613 -44.009285 10.478888 0
3.0991704 -43.970459 10.475163 0
3.2447345 -43.953587 10.473451 0
3.3904235 -43.941303 10.472236 0
3.5360541 -43.928631 10.471087 0
3.6794021 -43.871723 10.466175 0
3.8257658 -43.876835 10.46677 0
59.543961 -36.867973 10.87535 0
59.641468 -36.652298 10.893801 0
59.73666 -36.435444 10.91218 0
59.796791 -36.197987 10.928149 0
59.898563 -35.985664 10.947172 0
59.976685 -35.759659 10.964593 0
60.072247 -35.544151 10.983354 0
60.171295 -35.330864 11.002456 0
59.445034 -38.196068 10.811553 0
59.489311 -37.943806 10.825903 0
59.608673 -37.739147 10.84559 0
59.595257 -37.452408 10.856038 0
59.586273 -37.169708 10.866847 0
-1.2845936 -46.268799 10.727866 0
-1.1198972 -46.09774 10.709505 0
4.6128883 -46.850784 10.727919 0
4.7691851 -46.845181 10.728112 0
4.4469299 -46.70607 10.714708 0
-3.6562212 -46.649963 10.823491 0
-3.4969933 -46.632099 10.81701 0
-3.3419724 -46.650894 10.813923 0
-3.1873217 -46.673378 10.811272 0
-3.0267091 -46.637321 10.803492 0
-4.1219363 -46.596161 10.833935 0
-3.8100715 -46.620354 10.825817 0
-2.8663754 -46.60043 10.795753 0
-2.7035439 -46.53318 10.785419 0
4.2820373 -46.561302 10.701603 0
-2.543596 -46.49147 10.777481 0
-2.383126 -46.439327 10.76873 0
-2.2283382 -46.4496 10.765643 0
-2.071274 -46.431293 10.76012 0
-1.9155673 -46.427898 10.756031 0
-1.759004 -46.411381 10.750885 0
-1.6021109 -46.387394 10.745185 0
-1.4448681 -46.354523 10.738805 0
5.4017558 -46.904423 10.737079 0
5.5597258 -46.911907 10.738945 0
5.715579 -46.894821 10.738771 0
5.8725805 -46.889935 10.739765 0
6.0303812 -46.89241 10.741512 0
6.1897426 -46.908875 10.744586 0
6.5058694 -46.911892 10.74844 0
6.6633143 -46.906227 10.749898 0
6.8196673 -46.89048 10.750579 0
6.9775715 -46.887516 10.752487 0
7.1382074 -46.905762 10.756363 0
7.2949243 -46.891102 10.757455 0
7.4551916 -46.903362 10.761024 0
7.7715015 -46.892155 10.765339 0
7.9321027 -46.902725 10.769082 0
8.0887737 -46.884525 10.770399 0
4.9278321 -46.870445 10.73111 0
5.0838819 -46.859295 10.73103 0
5.2390518 -46.837299 10.730109 0
6.3446193 -46.880943 10.743881 0
7.6111498 -46.881771 10.761721 0
8.2464857 -46.873154 10.772426 0
8.4052687 -46.868305 10.775134 0
8.5607786 -46.841503 10.776008 0
8.7256136 -46.873589 10.782197 0
-4.7486458 -46.564514 10.852959 0
-4.5960183 -46.603191 10.850825 0
-4.4391584 -46.610863 10.845989 0
-4.2804489 -46.603493 10.839904 0
-3.9681454 -46.626003 10.831421 0
-7.7615151 -46.465981 10.972106 0
-7.4393764 -46.465233 10.956615 0
-7.2842469 -46.493427 10.951698 0
-7.1244497 -46.497295 10.944634 0
-6.9656048 -46.505226 10.938058 0
-6.8069072 -46.513138 10.931593 0
-6.6503701 -46.532112 10.926261 0
-6.4874878 -46.515141 10.917724 0
-6.3261166 -46.505013 10.909935 0
-6.1670747 -46.506939 10.903372 0
-6.0017986 -46.470654 10.893415 0
-5.8481445 -46.502491 10.88982 0
-5.6875381 -46.491325 10.882396 0
-5.5263681 -46.474953 10.874612 0
-5.3677974 -46.473644 10.868317 0
-5.2106347 -46.480541 10.862882 0
-5.0555263 -46.500679 10.858756 0
-4.9000063 -46.517815 10.854465 0
-8.3880653 -46.374615 10.99575 0
-8.23036 -46.393063 10.989262 0
-8.0799789 -46.445217 10.986049 0
-7.913383 -46.420986 10.97578 0
-7.5948863 -46.43882 10.961804 0
9.7097397 -46.991287 10.815101 0
9.8801241 -47.039261 10.823506 0
10.042966 -47.043983 10.828179 0
10.204147 -47.038723 10.832076 0
10.37251 -47.069553 10.839307 0
10.53113 -47.048893 10.842053 0
10.686207 -47.010258 10.843297 0
10.854063 -47.034256 10.850262 0
8.8892326 -46.895706 10.787621 0
9.0531864 -46.91782 10.793156 0
9.2145405 -46.922573 10.797262 0
9.3793688 -46.946152 10.803152 0
9.5424891 -46.958019 10.808118 0
-10.361992 -46.422832 11.108457 0
-10.198214 -46.428089 11.099277 0
-10.036325 -46.439674 11.090826 0
-9.8711739 -46.437603 11.081183 0
-9.7071619 -46.438877 11.071986 0
-9.5465155 -46.452675 11.064107 0
-9.381072 -46.446007 11.054395 0
-9.2195215 -46.454254 11.046226 0
-9.0527515 -46.43948 11.035987 0
-8.8842134 -46.415485 11.025001 0
-8.7149868 -46.386585 11.013681 0
-8.5555201 -46.399017 11.006392 0
11.850665 -47.093704 10.886933 0
12.677824 -47.092838 10.916165 0
12.844091 -47.092743 10.922372 0
11.016599 -47.030804 10.854884 0
11.180056 -47.030701 10.859919 0
11.342705 -47.025757 10.864632 0
11.511765 -47.049103 10.872007 0
11.673325 -47.03693 10.876301 0
12.012601 -47.080639 10.891379 0
12.170205 -47.048328 10.894195 0
12.342306 -47.076962 10.902649 0
12.506641 -47.071381 10.908119 0
13.008359 -47.08358 10.92787 0
-12.192277 -46.398888 11.221016 0
-11.859368 -46.412373 11.200301 0
-11.690104 -46.408077 11.189049 0
-11.517417 -46.390739 11.176646 0
-11.351833 -46.396519 11.166647 0
-11.015381 -46.386116 11.14488 0
-10.855963 -46.410851 11.137106 0
-10.687428 -46.40163 11.126149 0
-10.527148 -46.421734 11.118162 0
-12.51218 -46.340019 11.237722 0
-12.344881 -46.345947 11.226976 0
-12.019534 -46.385315 11.208587 0
-11.180737 -46.381832 11.154773 0
13.176254 -47.087742 10.934703 0
13.350115 -47.113663 10.943646 0
13.510036 -47.084717 10.947692 0
14.862953 -47.092171 11.006308 0
13.670875 -47.058872 10.952129 0
13.840111 -47.06366 10.959501 0
14.006747 -47.057682 10.966002 0
14.178234 -47.068188 10.974146 0
14.348214 -47.071915 10.98179 0
14.519753 -47.079872 10.989947 0
14.688591 -47.077126 10.997238 0
-13.35315 -46.309055 11.293295 0
-13.189143 -46.330017 11.283403 0
-13.014175 -46.316536 11.27018 0
-12.845366 -46.32074 11.258868 0
-12.680598 -46.336601 11.248854 0
-14.19852 -46.266129 11.350969 0
-14.027005 -46.269653 11.338652 0
-13.856153 -46.273994 11.326551 0
-13.689121 -46.288467 11.315617 0
-13.519316 -46.293819 11.303889 0
15.045513 -47.133339 11.017938 0
15.217854 -47.138279 11.026329 0
15.39038 -47.142532 11.034786 0
-14.744078 -46.334366 11.396897 0
-14.567154 -46.327011 11.383016 0
-15.586071 -46.240162 11.454806 0
-15.43021 -46.29369 11.446578 0
-15.255575 -46.297073 11.433244 0
-15.08478 -46.309647 11.421004 0
-14.911833 -46.315407 11.408199 0
-14.378687 -46.285831 11.365811 0
-16.078295 -46.141277 11.486697 0
-15.911257 -46.167213 11.475198 0
-15.755731 -46.222179 11.466884 0
15.664806 -47.476772 11.074267 0
15.839424 -47.481236 11.083058 0
-17.501448 -46.112949 11.602938 0
-17.319271 -46.110382 11.587214 0
-17.127758 -46.084221 11.569111 0
-16.940569 -46.066708 11.552108 0
-16.756731 -46.055775 11.535976 0
-16.592051 -46.090469 11.52487 0
-16.41548 -46.095085 11.510695 0
-16.249365 -46.124783 11.499328 0
-18.477369 -46.252254 11.697892 0
-18.293516 -46.253483 11.681732 0
-18.070419 -46.164116 11.655822 0
-17.88422 -46.156574 11.63906 0
-17.691898 -46.13343 11.620767 0
-18.849413 -46.255615 11.731346 0
-18.669268 -46.267605 11.716047 0
-0.39841819 -44.231014 12.041537 0
1.505742 -44.236526 12.014524 0
1.7986265 -44.252422 12.013958 0
1.9450744 -44.251682 12.01278 0
3.9973831 -44.24118 12.008461 0
-0.2496438 -44.180229 12.032445 0
0.19045925 -44.151268 12.021104 0
0.33695138 -44.141914 12.017594 0
0.48304343 -44.145035 12.015738 0
0.6288625 -44.160873 12.015561 0
0.77505481 -44.160637 12.013521 0
0.9212122 -44.161469 12.011729 0
1.0669382 -44.200962 12.014804 0
1.2131587 -44.209148 12.014145 0
1.3594517 -44.211483 12.012884 0
1.6520813 -44.217751 12.010904 0
2.0910552 -44.214855 12.007294 0
2.2372143 -44.203358 12.005031 0
2.3829882 -44.175671 12.000897 0
2.5290737 -44.168594 11.999411 0
2.6742237 -44.127529 11.99387 0
-0.10110426 -44.125362 12.022974 0
0.045565963 -44.112122 12.018755 0
2.8193264 -44.093346 11.989289 0
2.9639461 -44.05088 11.983811 0
3.1091475 -44.031052 11.981223 0
3.8383589 -44.017113 11.980453 0
3.2541845 -44.009613 11.978552 0
3.3984537 -43.973141 11.974153 0
3.5445912 -43.980442 11.975238 0
3.689404 -43.959766 11.973006 0
-0.8441658 -44.330139 12.06298 0
-0.69458997 -44.283386 12.054018 0
-0.54803145 -44.290928 12.051884 0
-1.1136973 -46.403751 12.322784 0
72.819725 -49.476345 11.635746 0
72.92247 -49.187531 11.656108 0
73.214149 -49.024502 11.689533 0
60.054695 -36.316586 13.348311 0
60.270546 -35.898235 13.386785 0
59.9785 -37.372643 13.312665 0
59.824585 -37.001945 13.302042 0
59.924934 -36.787346 13.319996 0
59.985035 -36.548843 13.33356 0
60.179432 -36.117279 13.369376 0
60.499294 -35.759335 13.419833 0
59.62793 -38.835064 13.236139 0
59.7514 -38.63113 13.255844 0
59.863632 -38.42012 13.274426 0
59.980534 -38.212193 13.293659 0
60.271957 -38.113018 13.332512 0
60.742641 -38.123039 13.391568 0
2.5320444 -43.868587 13.469914 0
-0.070831895 -43.854954 13.497141 0
0.074358821 -43.841457 13.492238 0
0.21921337 -43.834702 13.488541 0
0.36444438 -43.811539 13.48237 0
0.50944602 -43.790157 13.476621 0
0.65366268 -43.798325 13.47569 0
0.79813838 -43.793606 13.472851 0
0.9425227 -43.79187 13.470617 0
1.0868614 -43.791996 13.468807 0
1.2312121 -43.789062 13.466646 0
1.3755455 -43.783501 13.464205 0
1.5198331 -43.790146 13.463825 0
1.6641359 -43.787277 13.462073 0
1.8084415 -43.787395 13.460923 0
1.9529854 -43.810791 13.463592 0
2.0974123 -43.812737 13.462996 0
2.2417955 -43.810513 13.461872 0
2.3867292 -43.835495 13.465189 0
3.2649927 -44.097034 13.505501 0
3.4095225 -44.072338 13.501884 0
3.846308 -44.070602 13.503271 0
4.1404285 -44.1133 13.511805 0
4.2882271 -44.141277 13.517324 0
-1.0962316 -44.033932 13.548727 0
3.5544381 -44.058399 13.500098 0
3.6988878 -44.036255 13.497149 0
3.9917531 -44.065769 13.503328 0
-0.94627833 -43.960728 13.533354 0
-0.79983377 -43.941116 13.526661 0
-0.65449595 -43.939297 13.522936 0
-0.50953484 -43.943951 13.52038 0
-0.36297286 -43.912479 13.512207 0
-0.21714139 -43.892376 13.505983 0
2.677706 -43.905262 13.475344 0
2.8229365 -43.918682 13.477221 0
2.9682755 -43.93169 13.479168 0
3.1145167 -43.96563 13.48456 0
-1.2520018 -44.187565 13.577083 0
-9.0063572 -30.812265 -5.1859851 0
-8.8815413 -30.812891 -5.1764412 0
-9.2329197 -30.747128 -5.1803579 0
-9.1158657 -30.769632 -5.1791577 0
-10.296409 -30.245142 -5.0894184 0
-22.745836 -29.190441 -4.8485036 0
-13.009695 -29.124662 -4.9649119 0
-12.876045 -29.122509 -4.9493351 0
-23.182171 -28.861921 -4.8159142 0
-13.775476 -28.810295 -4.9431648 0
-13.654137 -28.834196 -4.9372621 0
-13.494698 -28.788324 -4.9028587 0
-14.429852 -28.530525 -4.9251432 0
-14.293666 -28.531103 -4.9087448 0
-23.576223 -28.485506 -4.7656741 0
-14.132906 -28.48826 -4.8745532 0
-15.205222 -28.214897 -4.9144535 0
-15.07051 -28.221914 -4.899642 0
-14.929868 -28.218393 -4.8806038 0
-14.516578 -28.216034 -4.8280597 0
-24.047503 -28.192305 -4.751564 0
-23.904448 -28.238878 -4.743835 0
-23.718706 -28.238642 -4.717021 0
-14.781467 -28.201075 -4.8560004 0
-14.642595 -28.198307 -4.8376684 0
-19.75161 -31.087122 -5.0142431 0
-19.60787 -31.118019 -5.0061636 0
-19.726721 -30.820282 -4.9318085 0
-9.3613539 -30.42598 -5.0743241 0
-9.2359133 -30.424208 -5.063406 0
13.577424 -30.295664 -5.3109908 0
-9.9394455 -30.300413 -5.0778413 0
-9.8244686 -30.32782 -5.0777955 0
-9.7070541 -30.34877 -5.0753217 0
-9.5899563 -30.370087 -5.0731206 0
-9.4682302 -30.379055 -5.0661774 0
-10.173687 -30.255041 -5.0820475 0
-10.057832 -30.281033 -5.0811901 0
14.31588 -29.952238 -5.2685504 0
14.442223 -29.954975 -5.2840056 0
14.554823 -29.923365 -5.2856116 0
14.662677 -29.880081 -5.2825785 0
-10.612376 -29.796314 -4.9572377 0
-10.497711 -29.823616 -4.9563956 0
-10.377241 -29.836946 -4.9501209 0
-10.270163 -29.881403 -4.9563508 0
-21.68726 -29.830275 -4.8895535 0
-21.514484 -29.83148 -4.8671813 0
-21.307215 -29.788084 -4.8274651 0
-21.154398 -29.811842 -4.8144717 0
-11.080558 -29.704754 -4.9689345 0
-10.959244 -29.718767 -4.962266 0
-10.852673 -29.76543 -4.9687715 0
-10.735029 -29.786871 -4.9653292 0
-11.197788 -29.68117 -4.9719095 0
-21.979912 -29.545828 -4.8463206 0
-21.63249 -29.547836 -4.8006525 0
-22.132624 -29.517738 -4.8587189 0
-21.779535 -29.514849 -4.8106589 0
-12.09653 -29.3972 -4.962029 0
-11.713353 -29.408947 -4.92665 0
-11.960519 -29.384926 -4.9435458 0
-11.830756 -29.38446 -4.929996 0
-11.570345 -29.378901 -4.9015012 0
-22.554285 -29.175869 -4.8180652 0
-22.412207 -29.218142 -4.8107224 0
-22.204859 -29.182293 -4.7722769 0
-22.060072 -29.219484 -4.7633362 0
-12.726135 -29.088007 -4.9207625 0
-12.589839 -29.078472 -4.9025373 0
-12.465796 -29.091921 -4.8938165 0
-12.337933 -29.097107 -4.8818946 0
-12.206438 -29.094217 -4.8668566 0
-12.071114 -29.08263 -4.8484645 0
-12.976351 -28.811836 -4.8520007 0
-22.75349 -28.785267 -4.7344546 0
-22.565369 -28.774446 -4.7053318 0
-13.368525 -28.801695 -4.8929701 0
-13.235582 -28.801842 -4.8778243 0
-13.104201 -28.803965 -4.8636556 0
-22.891241 -28.737413 -4.7400603 0
-23.369862 -28.460335 -4.7292719 0
-23.234461 -28.512497 -4.7247624 0
-23.057121 -28.517117 -4.7010655 0
-13.99732 -28.487625 -4.8580356 0
-13.869097 -28.498964 -4.8466396 0
-13.7407 -28.509233 -4.8349662 0
-23.563393 -28.270247 -4.7035756 0
-14.376489 -28.209368 -4.8084702 0
18.805532 -33.35791 -5.579474 0
18.948845 -33.346603 -5.5926237 0
19.09087 -33.331917 -5.6046638 0
19.240477 -33.331306 -5.6221561 0
19.317242 -33.18811 -5.5861235 0
-18.351244 -31.664436 -5.0240102 0
-18.199589 -31.677389 -5.0108356 0
-18.014063 -31.636824 -4.9777255 0
-17.876932 -31.670246 -4.9726171 0
-17.721329 -31.673944 -4.9565215 0
-17.572895 -31.687992 -4.9444823 0
-18.707018 -31.231722 -4.9340177 0
-18.560402 -31.252928 -4.9234715 0
-18.413851 -31.273436 -4.9128327 0
-18.28492 -31.319862 -4.9121523 0
-18.969809 -31.1425 -4.9378157 0
-18.834249 -31.181208 -4.9336014 0
-19.376354 -31.022963 -4.9500866 0
-19.150677 -30.933699 -4.8965473 0
-19.664248 -30.50424 -4.8302932 0
-19.741138 -30.383286 -4.803813 0
24.500652 -30.155518 -5.3607912 0
24.834442 -30.15513 -5.4112959 0
-19.813164 -30.256351 -4.7750745 0
24.647509 -30.129002 -5.3751831 0
13.562065 -29.926336 -5.1752124 0
13.684374 -29.924406 -5.1878586 0
13.815632 -29.944824 -5.2097001 0
13.948676 -29.968519 -5.2330389 0
14.063295 -29.944139 -5.2370372 0
14.187719 -29.943987 -5.251009 0
24.712589 -29.771139 -5.2796869 0
25.042004 -29.76372 -5.3281188 0
25.376402 -29.758234 -5.3783288 0
-20.861675 -29.87339 -4.7945766 0
-20.702431 -29.886366 -4.7779446 0
-20.343582 -29.856266 -4.7234497 0
24.855576 -29.739462 -5.2923021 0
25.194008 -29.741892 -5.3452315 0
-20.999557 -29.832163 -4.8003263 0
-20.496124 -29.836931 -4.7371469 0
14.639906 -29.525595 -5.1524458 0
14.750275 -29.491331 -5.1531739 0
14.862619 -29.461489 -5.1558328 0
25.260839 -29.393232 -5.2538104 0
25.579268 -29.366119 -5.2958846 0
25.917362 -29.359394 -5.3474245 0
14.95179 -29.377771 -5.1365147 0
25.40062 -29.355579 -5.2647319 0
25.732815 -29.344004 -5.3137093 0
-11.418598 -29.328753 -4.8684587 0
-11.29618 -29.33987 -4.8602042 0
-11.16453 -29.33025 -4.8437767 0
25.779882 -28.977514 -5.2151003 0
25.920774 -28.939661 -5.2266922 0
26.098471 -28.945734 -5.2569542 0
26.247671 -28.916235 -5.2725043 0
26.432035 -28.927935 -5.3056817 0
26.476072 -28.565065 -5.2089581 0
26.616898 -28.524506 -5.2204227 0
26.795195 -28.52676 -5.2503538 0
26.833019 -28.163027 -5.1532497 0
30.268116 -33.892387 -5.6747746 0
30.42131 -33.83223 -5.6803985 0
17.42277 -33.533096 -5.4795227 0
17.56955 -33.537445 -5.4969492 0
17.70977 -33.526474 -5.5088639 0
17.846996 -33.508259 -5.5182447 0
17.993324 -33.50872 -5.5347066 0
18.066368 -33.353695 -5.4934998 0
18.210789 -33.349545 -5.5084972 0
18.349777 -33.333202 -5.5191116 0
18.502293 -33.343864 -5.5399594 0
18.648214 -33.339893 -5.5555162 0
-16.316784 -31.910055 -4.8789663 0
-17.318153 -31.78149 -4.9453158 0
-17.155201 -31.769773 -4.9241505 0
-17.401354 -31.664124 -4.9184461 0
-16.967316 -31.715843 -4.8874702 0
-16.79393 -31.683954 -4.8592153 0
-16.660135 -31.716497 -4.8550777 0
-18.875324 -30.769953 -4.8149352 0
-19.845781 -30.076797 -4.7260118 0
24.182106 -29.947208 -5.2511878 0
-20.190678 -29.874229 -4.7094135 0
-19.908165 -29.938759 -4.6930161 0
-19.985512 -29.821573 -4.6681452 0
14.998616 -29.197876 -5.0777569 0
15.043673 -29.016592 -5.0183997 0
26.288038 -28.549021 -5.1737199 0
26.635595 -28.138643 -5.1136503 0
28.469799 -34.623173 -5.6234517 0
28.672291 -34.63393 -5.6528487 0
28.914879 -34.441467 -5.6344829 0
29.081497 -34.403316 -5.646656 0
29.238565 -34.352219 -5.6542883 0
29.441542 -34.358398 -5.6830921 0
29.59819 -34.305084 -5.6903062 0
29.625622 -34.090488 -5.6383185 0
29.791189 -34.048103 -5.6497908 0
29.938091 -33.982067 -5.6527109 0
30.118141 -33.955902 -5.6705666 0
16.045012 -33.644463 -5.3706021 0
16.177664 -33.62458 -5.3776531 0
16.307259 -33.596806 -5.3819489 0
16.436796 -33.568459 -5.3861632 0
16.581223 -33.574554 -5.4031382 0
17.135536 -33.53529 -5.4491754 0
17.272245 -33.519283 -5.4587679 0
30.347477 -33.50127 -5.5851727 0
16.68329 -33.481304 -5.3837867 0
16.816084 -33.459438 -5.3907528 0
16.95327 -33.446987 -5.4013214 0
30.468613 -33.404053 -5.5770607 0
30.587502 -33.30418 -5.5680628 0
30.756166 -33.262291 -5.5809526 0
30.879431 -33.167061 -5.5739713 0
-14.906636 -32.337265 -4.871942 0
-14.793466 -32.402119 -4.881546 0
-14.634758 -32.380226 -4.8597169 0
-15.29538 -32.233105 -4.8768191 0
-15.167342 -32.271111 -4.8762631 0
-15.032449 -32.295982 -4.8710423 0
-15.38916 -32.132645 -4.8546348 0
-15.644573 -32.054531 -4.8555679 0
-15.518756 -32.097176 -4.8563514 0
-16.034029 -31.945475 -4.8609352 0
-15.910537 -31.993362 -4.8632569 0
-15.778774 -32.026367 -4.8602338 0
-16.176207 -31.929529 -4.8705254 0
-16.533213 -31.760063 -4.8551674 0
-16.399847 -31.792347 -4.8512101 0
15.0545 -28.761086 -4.9284401 0
15.138547 -28.672424 -4.9071708 0
15.214788 -28.567394 -4.8792062 0
-28.148304 -10.001248 -2.4220977 0
-28.14303 -9.8820963 -2.3978519 0
-28.144468 -9.7653942 -2.3758137 0
33.224861 -7.3181553 -2.8986111 0
27.429096 -34.766109 -5.5266294 0
27.645267 -34.803242 -5.5641131 0
27.764263 -34.706497 -5.5538006 0
27.919212 -34.658329 -5.5610662 0
28.133677 -34.689198 -5.5969944 0
28.301815 -34.656715 -5.6103206 0
28.698502 -34.414143 -5.5986991 0
15.375864 -33.719658 -5.3285308 0
15.506561 -33.698021 -5.3342786 0
15.646006 -33.697857 -5.3479662 0
15.769403 -33.656776 -5.3468995 0
15.911216 -33.660927 -5.3624368 0
-14.479681 -32.363892 -4.8400846 0
-14.141318 -32.272049 -4.7798891 0
-13.982491 -32.24382 -4.7564836 0
-14.264788 -32.230175 -4.778048 0
15.214484 -28.296507 -4.7827101 0
15.286158 -28.185396 -4.752224 0
15.362408 -28.085297 -4.7263398 0
15.438671 -27.986221 -4.7009268 0
15.526415 -27.912243 -4.685997 0
15.622055 -27.855194 -4.6781902 0
15.715534 -27.793871 -4.6686969 0
15.808951 -27.732672 -4.659348 0
32.424126 -9.6398582 -3.1015928 0
32.407307 -9.5180025 -3.0737255 0
-28.12709 -9.6430502 -2.3482265 0
32.404335 -9.4008217 -3.0506074 0
-28.118767 -9.5239134 -2.3235598 0
32.398056 -9.2829237 -3.0265629 0
-28.135201 -9.4126768 -2.3065317 0
32.395687 -9.1665115 -3.0039647 0
-28.118504 -9.2915688 -2.2796621 0
32.395054 -9.0508909 -2.9820931 0
-28.120256 -9.1763487 -2.2585106 0
32.426704 -8.9450026 -2.9709232 0
-28.121407 -9.0611887 -2.2373271 0
32.43214 -8.8315334 -2.9513159 0
-28.119799 -8.9454679 -2.2154701 0
32.462799 -8.7254753 -2.9400544 0
32.780739 -8.7004251 -3.0221443 0
-28.129948 -8.8333826 -2.1972744 0
32.789463 -8.5871973 -3.003794 0
32.801132 -8.4749489 -2.9865351 0
-28.11833 -8.7152967 -2.1727352 0
32.842258 -8.370822 -2.9789083 0
-28.122805 -8.6020346 -2.1531384 0
32.842236 -8.2556362 -2.9581327 0
32.870926 -8.1482325 -2.9467247 0
32.894176 -8.0394297 -2.933681 0
32.928486 -7.9335012 -2.9242897 0
32.940685 -7.8219676 -2.9079409 0
32.964081 -7.7133379 -2.8952866 0
32.983852 -7.6038575 -2.8815932 0
32.996159 -7.4926462 -2.8656497 0
33.015556 -7.3832288 -2.8520753 0
33.214012 -7.2012095 -2.8756137 0
33.203243 -7.0845575 -2.8527932 0
33.200706 -6.9700084 -2.8327129 0
33.174862 -6.8505774 -2.8054674 0
33.128883 -6.7271996 -2.7720935 0
33.113384 -6.6107779 -2.7484291 0
33.050289 -6.484777 -2.7100883 0
27.061077 -34.776169 -5.4825468 0
27.241949 -34.767403 -5.5031447 0
26.804531 -34.677017 -5.4237766 0
-12.945006 -32.456039 -4.732595 0
-13.177005 -32.349022 -4.7183995 0
-13.049169 -32.377625 -4.7165008 0
-12.767235 -32.377151 -4.6924019 0
-25.532387 -32.379883 -4.5251298 0
-13.292136 -32.293713 -4.7108145 0
-13.813169 -32.193146 -4.7251387 0
-13.655123 -32.163231 -4.7014856 0
-13.518248 -32.174721 -4.6929355 0
-13.408858 -32.24168 -4.7045126 0
15.903082 -27.673155 -4.6507916 0
15.912134 -27.44309 -4.5709338 0
15.991427 -27.355986 -4.5508986 0
16.072618 -27.27331 -4.5327797 0
16.142052 -27.168257 -4.5053172 0
-28.106121 -8.48314 -2.1274185 0
-28.112446 -8.3708601 -2.1086643 0
-28.09642 -8.2527676 -2.0834594 0
-28.094801 -8.1388283 -2.0626578 0
-28.083616 -8.0226288 -2.0391963 0
-28.071875 -7.9065876 -2.0157266 0
-28.067404 -7.7926879 -1.9945391 0
-28.074928 -7.6820259 -1.9769951 0
-28.090195 -7.57342 -1.9618334 0
-28.069693 -7.456243 -1.9364101 0
33.00843 -6.3637433 -2.678561 0
32.955032 -6.2408781 -2.6436372 0
32.893642 -6.1170034 -2.6064329 0
32.898636 -6.0065427 -2.589958 0
32.882603 -5.8922315 -2.5671196 0
32.907345 -5.7857642 -2.5569899 0
32.883076 -5.6703563 -2.5318906 0
32.897873 -5.5622449 -2.5189381 0
32.917088 -5.4549499 -2.5074494 0
33.139965 -5.2712784 -2.5410783 0
33.137703 -5.1598191 -2.5232601 0
33.138752 -5.0490465 -2.5065751 0
33.144669 -4.939167 -2.4914942 0
33.158939 -4.830658 -2.4790621 0
33.144276 -4.7178512 -2.4579866 0
33.144875 -4.6075048 -2.4416583 0
33.15773 -4.4990249 -2.4291468 0
33.167782 -4.3901863 -2.4158988 0
33.139797 -4.2762518 -2.3913407 0
-27.530643 10.683935 -0.097925961 0
-27.530125 10.799857 -0.095954031 0
-27.513073 10.909947 -0.090215027 0
-27.503277 11.022906 -0.086271107 0
26.202238 -34.603909 -5.3289351 0
26.404146 -34.631588 -5.3614693 0
26.603285 -34.653618 -5.3922563 0
26.000231 -34.574383 -5.2959943 0
-11.189962 -32.560543 -4.625627 0
-11.056126 -32.565514 -4.6172361 0
-11.438597 -32.503151 -4.6259623 0
-11.312012 -32.526627 -4.6238861 0
-11.797473 -32.382019 -4.6148653 0
-11.679724 -32.426903 -4.6200562 0
-11.550082 -32.443916 -4.6154523 0
-25.323385 -32.367584 -4.4982171 0
-12.606408 -32.332451 -4.6646495 0
-12.443636 -32.281677 -4.6349006 0
-12.292171 -32.253887 -4.6135402 0
-12.030252 -32.285892 -4.6025381 0
-11.914818 -32.336143 -4.609427 0
-25.042099 -32.268654 -4.4410853 0
-24.844234 -32.265797 -4.4180579 0
-12.141703 -32.226803 -4.5925922 0
-25.570564 -32.193882 -4.4821215 0
-25.63866 -32.043354 -4.4516721 0
-25.770847 -31.966345 -4.4473739 0
-25.897284 -31.882568 -4.4407983 0
-26.027296 -31.80258 -4.4357028 0
-26.021946 -31.571884 -4.3768544 0
-26.146099 -31.485968 -4.3697853 0
-26.408276 -31.328663 -4.3612471 0
-26.266291 -31.395529 -4.3612142 0
16.229748 -27.099556 -4.4931998 0
16.304358 -27.006077 -4.470715 0
16.382738 -26.92054 -4.4516335 0
16.41309 -26.745012 -4.3945475 0
16.498878 -26.675327 -4.3822422 0
16.566895 -26.573015 -4.3561769 0
16.653736 -26.506199 -4.3452287 0
16.746859 -26.451096 -4.3393507 0
-28.091381 -7.3494811 -1.9233694 0
-28.054691 -7.2290487 -1.8935695 0
-28.071354 -7.1214108 -1.8793349 0
-28.070864 -7.0099421 -1.8602803 0
-28.081238 -6.9010944 -1.8444791 0
-28.078409 -6.7894497 -1.8250188 0
-28.079679 -6.678895 -1.8068659 0
-28.107405 -6.5741401 -1.7963896 0
-28.102325 -6.4624953 -1.7766755 0
-28.080437 -6.3476048 -1.7523236 0
-28.068419 -6.2350349 -1.730926 0
-28.039597 -6.1193857 -1.7049172 0
-28.052536 -6.0122399 -1.6908596 0
32.903229 -5.3420048 -2.4859526 0
33.115288 -4.1630907 -2.3679729 0
33.134212 -4.0557823 -2.3577504 0
33.120041 -3.9443276 -2.3377402 0
33.111179 -3.8337245 -2.319447 0
33.094398 -3.7223592 -2.2989242 0
33.084263 -3.6119714 -2.2805107 0
33.054562 -3.4995942 -2.2564161 0
33.065994 -3.3919196 -2.2446575 0
33.032913 -3.2796583 -2.2198343 0
33.034008 -3.1711318 -2.2052534 0
32.999687 -3.0592775 -2.1803443 0
32.988266 -2.949873 -2.162323 0
32.98698 -2.8415346 -2.1474037 0
32.964626 -2.7314801 -2.1264172 0
33.193825 -2.4249587 -2.1507759 0
33.183525 -2.3156457 -2.1337013 0
33.183964 -2.207202 -2.1198723 0
33.188736 -2.099098 -2.1074135 0
33.173042 -1.9897715 -2.0891218 0
33.165863 -1.8811034 -2.0734215 0
33.155621 -1.7723756 -2.0569499 0
33.154823 -1.6642489 -2.0433257 0
33.151657 -1.5560668 -2.0291288 0
33.126732 -1.447006 -2.0087738 0
33.147156 -1.3399801 -2.0015917 0
33.119286 -1.2310879 -1.9806297 0
33.118073 -1.1233114 -1.9674433 0
-27.592161 9.2180338 -0.14519665 0
-27.581049 9.327487 -0.13948721 0
-27.575041 9.4387226 -0.13507062 0
-27.566608 9.5493746 -0.1301814 0
-27.552155 9.6582375 -0.12397677 0
-27.564579 9.7761354 -0.1241717 0
-27.566982 9.8910255 -0.12210989 0
-27.543882 9.9975548 -0.11416954 0
-27.559589 10.117456 -0.1154159 0
-27.568626 10.235434 -0.11519364 0
-27.550945 10.344394 -0.10881358 0
-27.54591 10.457963 -0.10549223 0
-27.538431 10.570895 -0.10169622 0
24.867174 -34.74894 -5.2052174 0
25.04533 -34.751446 -5.2272511 0
25.148993 -34.640121 -5.209661 0
25.30899 -34.613735 -5.2219105 0
25.46566 -34.581562 -5.2322946 0
25.617516 -34.541523 -5.2400799 0
25.796776 -34.540989 -5.2619429 0
-10.918314 -32.559868 -4.6052179 0
-10.793806 -32.586182 -4.6046319 0
-23.585779 -32.598537 -4.3651075 0
-10.629057 -32.511147 -4.5683751 0
-10.085172 -32.486374 -4.5219913 0
-23.853996 -32.462345 -4.3589358 0
-23.694431 -32.498871 -4.3510156 0
-10.433653 -32.355888 -4.503993 0
-24.140106 -32.346668 -4.3604383 0
-23.993488 -32.400375 -4.3581762 0
-24.413712 -32.213997 -4.3565869 0
-24.28318 -32.288116 -4.3611622 0
-24.585003 -32.188267 -4.3690982 0
16.835873 -26.388636 -4.3304348 0
16.9252 -26.326923 -4.3219275 0
16.967894 -26.182522 -4.2781501 0
17.067816 -26.14049 -4.2781992 0
17.143099 -26.055243 -4.2598233 0
17.234001 -25.997595 -4.2533679 0
17.331444 -25.951271 -4.2518835 0
17.423405 -25.895487 -4.2464328 0
17.509068 -25.829092 -4.2365017 0
17.553654 -25.694035 -4.1969495 0
17.654451 -25.65377 -4.1984625 0
17.744246 -25.595125 -4.1921206 0
17.829779 -25.529573 -4.1828723 0
17.922165 -25.475315 -4.1786299 0
18.016802 -25.42466 -4.1760688 0
-28.055071 -5.9031711 -1.6739841 0
-28.078928 -5.7982388 -1.6632267 0
-28.080086 -5.6891146 -1.6462009 0
-28.04895 -5.5743093 -1.6202574 0
-28.151913 -5.4835725 -1.631942 0
-28.151773 -5.374393 -1.6148868 0
-28.15449 -5.2658405 -1.5987496 0
-28.168848 -5.1593399 -1.5859669 0
-28.158686 -5.0488925 -1.5664937 0
-28.17963 -4.9435906 -1.5557605 0
-28.179535 -4.8350029 -1.5393162 0
-28.176023 -4.7260265 -1.5220504 0
-28.187317 -4.6193933 -1.5089813 0
-28.158829 -4.5070496 -1.4850998 0
-28.182241 -4.4023476 -1.4755867 0
-28.146345 -4.2894406 -1.4499484 0
-28.170851 -4.1849933 -1.4409525 0
-28.13274 -4.0723166 -1.414989 0
-28.130098 -3.9645181 -1.3988249 0
-28.137209 -3.8580465 -1.3854294 0
-28.118328 -3.7485116 -1.3650981 0
-28.128218 -3.6425562 -1.3526809 0
-28.136469 -3.5364432 -1.3399271 0
32.961945 -2.6232762 -2.1113288 0
-28.252022 -2.6928122 -1.254848 0
32.944054 -2.5139687 -2.0919058 0
-28.243355 -2.5853806 -1.238512 0
-28.27039 -2.4808557 -1.2317631 0
33.091431 -1.0148275 -1.947083 0
33.086666 -0.90713328 -1.9331048 0
33.084129 -0.79955435 -1.9198756 0
33.043797 -0.69129974 -1.8959725 0
33.054523 -0.584149 -1.8867497 0
33.038712 -0.47662488 -1.8700742 0
33.015625 -0.36916882 -1.8514509 0
33.01931 -0.26202911 -1.8405404 0
32.983555 -0.15481398 -1.8185607 0
32.981285 -0.047798902 -1.8061837 0
32.946987 0.059019864 -1.7848635 0
32.942226 0.16585238 -1.7720032 0
32.917053 0.27239624 -1.7534995 0
32.905373 0.37897563 -1.7389104 0
32.891644 0.48543462 -1.7238557 0
32.883228 0.5919221 -1.7104044 0
32.871593 0.69827235 -1.6961563 0
32.823299 0.80346012 -1.671757 0
32.800365 0.90916443 -1.6545784 0
32.811371 1.0159681 -1.6469934 0
-27.674349 7.4611969 -0.22697309 0
-27.659382 7.5672517 -0.21882814 0
-27.665945 7.6789789 -0.21587774 0
-27.63238 7.7803698 -0.20352414 0
-27.630346 7.8901324 -0.1987257 0
-27.614477 7.9963284 -0.19075319 0
-27.621502 8.1088924 -0.18828219 0
-27.625099 8.2207575 -0.18509218 0
-27.621508 8.3308258 -0.18029854 0
-27.611729 8.4393101 -0.17414087 0
-27.628057 8.5554914 -0.17423013 0
-27.609791 8.6618681 -0.16626176 0
-27.615437 8.7754259 -0.16401818 0
-27.608932 8.8855953 -0.15900829 0
-27.599564 8.9950705 -0.15342021 0
-27.593037 9.1055775 -0.1485967 0
-21.847279 26.941351 1.653182 0
-21.702188 26.965223 1.6719782 0
24.670938 -34.717182 -5.1732044 0
24.472151 -34.67971 -5.139442 0
-22.472332 -32.834114 -4.3083787 0
-22.314325 -32.865948 -4.3003154 0
-23.128067 -32.729294 -4.35004 0
-22.946863 -32.734512 -4.3321562 0
-22.794437 -32.775993 -4.3269033 0
-22.623894 -32.793022 -4.3134413 0
-23.423599 -32.630638 -4.3559608 0
-23.282482 -32.688732 -4.3559442 0
-10.173386 -32.370537 -4.4904108 0
-10.286832 -32.320858 -4.4822078 0
18.190884 -30.729118 -4.6766715 0
22.623589 -28.031513 -4.4498606 0
-28.129459 -3.4286988 -1.3231664 0
-28.117599 -3.3205812 -1.3052214 0
-28.093716 -3.211406 -1.284171 0
-28.121462 -3.1075833 -1.2770942 0
-28.109337 -2.999851 -1.2594358 0
-28.108549 -2.8933246 -1.2449276 0
-28.091028 -2.7854047 -1.226069 0
-28.255268 -2.3730783 -1.2139372 0
-28.235689 -2.2651556 -1.1950562 0
-28.22226 -2.1578457 -1.1779207 0
-28.216183 -2.0511575 -1.1628453 0
-28.222097 -1.945292 -1.1510347 0
-28.212679 -1.8385681 -1.1353008 0
-28.217094 -1.7326992 -1.1233064 0
-28.203747 -1.6259623 -1.106768 0
-28.203007 -1.5199496 -1.0936397 0
-28.219366 -1.4147203 -1.0850773 0
-28.202887 -1.308122 -1.0680538 0
-28.208794 -1.2024825 -1.0569699 0
-28.22879 -1.0972962 -1.049643 0
-28.256762 -0.99223667 -1.0444708 0
-28.281738 -0.88693666 -1.0386066 0
-28.25094 -0.78025723 -1.0184095 0
-28.205269 -0.67353922 -0.99450386 0
-28.172493 -0.56735647 -0.97405958 0
-28.126011 -0.4612605 -0.95021594 0
-28.128536 -0.35590994 -0.93909717 0
-28.104733 -0.25043041 -0.92132521 0
-28.040724 -0.14507401 -0.89337683 0
-28.055908 0.2752347 -0.85211116 0
-28.101833 0.38104427 -0.85274601 0
-28.118767 0.48661131 -0.84608686 0
-28.108152 0.59167039 -0.83253074 0
-28.129484 0.59242672 -0.83791173 0
-28.104776 0.69712245 -0.82088637 0
-28.125908 0.80302459 -0.81556439 0
32.760746 1.1203882 -1.6223152 0
-28.124733 0.90834361 -0.80469513 0
32.749527 1.226195 -1.6087445 0
-28.124376 1.0137001 -0.79413056 0
32.745979 1.3323067 -1.5974138 0
-28.14023 1.1197242 -0.78774405 0
32.741421 1.4383665 -1.5859032 0
-28.159466 1.2260265 -0.78229624 0
32.724815 1.5437691 -1.5711503 0
-28.157623 1.3314917 -0.77163827 0
32.702881 1.6487777 -1.5550296 0
-28.150688 1.4367119 -0.75980222 0
-28.158401 1.5427047 -0.75173473 0
32.680477 1.7536364 -1.5388933 0
-28.169121 1.6489552 -0.74451196 0
32.665321 1.8588415 -1.5248709 0
-28.143711 1.7531086 -0.72835249 0
32.659878 1.9646391 -1.5136368 0
-28.175972 1.8608416 -0.72669423 0
32.626133 2.0684116 -1.4946964 0
-28.140682 1.9642456 -0.70827842 0
32.598412 2.1724429 -1.4775336 0
-28.08794 2.0661988 -0.68563855 0
32.607288 2.2792022 -1.4705573 0
-28.046644 2.1686871 -0.6659714 0
32.60627 2.3852584 -1.4609526 0
-28.055788 2.2748885 -0.65894592 0
32.579376 2.4891422 -1.4443376 0
-28.041241 2.3792629 -0.64613569 0
32.540459 2.5918188 -1.4245356 0
32.530533 2.6969633 -1.4127971 0
-28.053165 2.485847 -0.63998258 0
32.528198 2.8028259 -1.403237 0
-28.077354 2.5936575 -0.63695139 0
32.484619 2.9046221 -1.3824954 0
-28.059803 2.69784 -0.623689 0
32.462379 3.0083771 -1.3677044 0
-28.088512 2.8063915 -0.62194484 0
32.458187 3.1139669 -1.3579443 0
-28.091724 2.9126735 -0.61399448 0
32.460091 3.2202668 -1.349942 0
-28.062305 3.0156882 -0.59810287 0
32.421272 3.3220205 -1.3309436 0
-28.048355 3.1202085 -0.58612609 0
32.404388 3.4261465 -1.3180298 0
-28.056459 3.2271225 -0.57966655 0
32.386295 3.5300834 -1.3048887 0
-28.058697 3.3335006 -0.57185745 0
-28.052938 3.4390364 -0.5621804 0
32.348438 3.631515 -1.2864857 0
-28.023115 3.5417144 -0.54670984 0
32.32016 3.7339854 -1.2707951 0
-28.022074 3.6478269 -0.53838515 0
32.268074 3.8332133 -1.2487614 0
-28.012442 3.7529206 -0.52805603 0
-27.995041 3.8570173 -0.51592898 0
-27.999022 3.9639511 -0.5091157 0
-27.978951 4.0676885 -0.49653462 0
-27.997181 4.1767921 -0.49337378 0
-27.959688 4.278048 -0.47675624 0
-27.969555 4.3861661 -0.47174582 0
-27.948109 4.4896989 -0.45922902 0
-27.94733 4.5963974 -0.45182234 0
-27.929539 4.7004914 -0.44038853 0
-27.918674 4.805696 -0.43073162 0
-27.913273 4.9118433 -0.42249021 0
-27.902225 5.0171089 -0.41298079 0
-27.888988 5.122036 -0.40304095 0
-27.901644 5.2315645 -0.39943495 0
-27.87162 5.3336129 -0.38564444 0
-27.86639 5.4401317 -0.37791905 0
-27.852106 5.5450439 -0.36811155 0
-27.841053 5.6506038 -0.35917833 0
-27.850317 5.7601724 -0.35521406 0
-27.832829 5.8646436 -0.34492621 0
-27.807907 5.9676299 -0.33295801 0
-27.789818 6.0719824 -0.32272461 0
-27.792576 6.1807079 -0.3175734 0
-27.778486 6.2860203 -0.30848786 0
-27.742622 6.3866768 -0.29430288 0
-27.75618 6.4980884 -0.29200858 0
-27.736502 6.6023316 -0.28188151 0
-27.751593 6.7144847 -0.28013122 0
-27.725456 6.8174028 -0.26865757 0
-27.722319 6.9256849 -0.26275373 0
-27.711069 7.0321846 -0.25501484 0
-27.709293 7.1410604 -0.24962017 0
-27.679344 7.2431917 -0.2376321 0
-27.651327 7.3457637 -0.22620502 0
-21.518644 26.944592 1.6990886 0
-21.380861 26.974876 1.7162281 0
-21.273411 27.039394 1.7266922 0
-21.078594 27.002342 1.7562066 0
-20.960188 27.052898 1.7689599 0
-20.737797 27.169855 1.7910793 0
23.289898 -34.432686 -4.9341822 0
23.509983 -34.515911 -4.982295 0
23.796808 -34.430145 -4.9921708 0
23.975662 -34.442616 -5.0164847 0
24.146488 -34.441074 -5.0361414 0
23.612963 -34.408241 -4.9648042 0
-22.116907 -32.844112 -4.2741399 0
-21.939461 -32.847675 -4.2568192 0
-21.781933 -32.877144 -4.2484813 0
-21.584404 -32.850933 -4.2214413 0
-21.432835 -32.886581 -4.215548 0
22.124142 -27.759151 -4.2945604 0
-28.01004 -0.040100574 -0.87409723 0
-28.010656 0.064827457 -0.86293381 0
-28.028347 0.16990925 -0.85622209 0
32.222618 3.9330537 -1.2286425 0
32.176872 4.0326214 -1.2085614 0
-20.776779 27.026587 1.7959554 0
-20.573593 27.164671 1.8137562 0
-20.442507 27.198086 1.8290712 0
-20.294628 27.210566 1.8480706 0
-20.241701 27.337772 1.8458508 0
-20.085352 27.338829 1.8666286 0
-19.796616 27.36754 1.9027363 0
-19.979187 27.400801 1.8761238 0
-19.617634 27.531178 1.9138744 0
21.81797 -34.747044 -4.8560758 0
21.966339 -34.720646 -4.8649607 0
22.115093 -34.694218 -4.8739786 0
22.228531 -34.605957 -4.8621092 0
22.379654 -34.582672 -4.8724542 0
22.529343 -34.556171 -4.8818531 0
22.667263 -34.509071 -4.8843589 0
22.808851 -34.467724 -4.8889594 0
22.954756 -34.433037 -4.895977 0
23.120443 -34.430347 -4.9141269 0
-21.282742 -32.923595 -4.2102618 0
-20.7605 -32.928024 -4.1594625 0
-21.074413 -32.878223 -4.1773481 0
-20.917738 -32.903938 -4.168601 0
-20.565346 -32.896843 -4.1319337 0
31.792419 4.0838752 -1.0970829 0
31.730831 4.1794748 -1.0730417 0
31.696091 4.2787361 -1.0563632 0
31.673235 4.379662 -1.0429957 0
31.629105 4.4772043 -1.0240023 0
31.584131 4.5744009 -1.0048939 0
31.517323 4.6678181 -0.98002923 0
31.465988 4.7634501 -0.95944059 0
31.449369 4.8647423 -0.94827908 0
15.47662 27.001787 1.503931 0
15.291308 27.092321 1.5157681 0
15.382161 27.043314 1.5106362 0
14.9954 27.189663 1.5403311 0
15.094216 27.157804 1.5321354 0
15.191454 27.122402 1.5245278 0
14.899855 27.228397 1.5470808 0
-19.679407 27.414595 1.9146137 0
14.147447 27.563482 1.5927024 0
14.268482 27.583967 1.5753951 0
14.378014 27.576954 1.5632091 0
14.493348 27.58247 1.5484829 0
14.599414 27.566278 1.5378015 0
14.70614 27.551081 1.5268058 0
14.809793 27.528603 1.5170984 0
14.924557 27.530054 1.5026227 0
-19.481092 27.55336 1.9299735 0
-19.328728 27.554558 1.9496379 0
-19.186802 27.568161 1.9669011 0
13.96385 27.658066 1.6011113 0
-19.116163 27.67341 1.9677967 0
-18.976385 27.688755 1.9844577 0
-18.812136 27.671061 2.0067317 0
-18.674461 27.687305 2.0228639 0
20.82464 -34.697723 -4.736011 0
20.990435 -34.709599 -4.7568207 0
21.154242 -34.716515 -4.7761335 0
21.304054 -34.696728 -4.7866173 0
21.482523 -34.727852 -4.8144312 0
21.641512 -34.722473 -4.8301024 0
-20.246368 -32.933311 -4.1105795 0
-19.747728 -32.950928 -4.0673871 0
-19.582207 -32.955624 -4.0529356 0
-20.398603 -32.905052 -4.117816 0
-20.057549 -32.907097 -4.0852923 0
-19.892694 -32.91473 -4.0714989 0
34.172379 -10.315366 -2.426322 0
34.192001 -10.198127 -2.4099553 0
31.353424 4.9522271 -0.91595185 0
31.325651 5.0512476 -0.90201628 0
31.262804 5.1438336 -0.87879509 0
31.20195 5.2364588 -0.85622382 0
31.159813 5.3322959 -0.8387686 0
31.10491 5.4255056 -0.81801224 0
31.096626 5.5275636 -0.80980378 0
31.043137 5.6206923 -0.78963721 0
31.004414 5.7165627 -0.77351415 0
30.951664 5.8093958 -0.75376153 0
30.884632 5.8989878 -0.73031986 0
30.846386 5.9943838 -0.71464247 0
30.813398 6.0907888 -0.70046377 0
17.10487 25.698137 1.4478753 0
16.916592 25.778877 1.4651828 0
17.001511 25.722406 1.4599587 0
16.753771 25.904753 1.4726918 0
16.836525 25.844109 1.4684985 0
16.669403 25.962652 1.477373 0
15.995224 26.211683 1.5395043 0
16.104277 26.200994 1.5258956 0
16.576704 26.218964 1.4575735 0
16.682833 26.199419 1.4450542 0
16.244255 26.248104 1.5003624 0
16.352661 26.234512 1.4870335 0
16.465801 26.229155 1.4718815 0
15.80704 26.513714 1.5252643 0
15.917433 26.505198 1.5114679 0
16.027988 26.496359 1.4975985 0
15.503948 26.59207 1.5553045 0
15.598597 26.553503 1.547895 0
15.698704 26.525661 1.5382334 0
15.416687 26.645573 1.5596461 0
13.149078 27.555449 1.708764 0
13.259288 27.557695 1.6961335 0
13.374188 27.570871 1.6813251 0
13.487999 27.580343 1.6670718 0
13.595927 27.574478 1.6555734 0
14.031593 27.554045 1.6077523 0
12.871761 27.683817 1.7208318 0
12.982841 27.689358 1.7079135 0
13.737154 27.648705 1.6288131 0
13.848242 27.648386 1.6159773 0
12.770695 27.703974 1.7288651 0
-18.539213 27.705984 2.0384021 0
-18.422949 27.749426 2.0494831 0
-18.282532 27.759762 2.0661459 0
-18.100775 27.712822 2.0924807 0
-17.974607 27.74057 2.1057777 0
-17.833977 27.747692 2.1224465 0
20.026432 -34.677837 -4.6476827 0
20.18626 -34.684559 -4.6659408 0
20.3438 -34.685673 -4.6824899 0
20.509342 -34.700871 -4.7039099 0
20.670071 -34.705639 -4.7220063 0
19.705851 -34.658867 -4.6098046 0
19.861847 -34.660545 -4.6260619 0
-19.165491 -33.085766 -4.0490069 0
-19.007055 -33.097893 -4.0376153 0
-18.82806 -33.076939 -4.0154543 0
-18.660175 -33.07198 -3.9987516 0
-18.527998 -33.122421 -4.0004611 0
-18.364298 -33.12212 -3.9855988 0
-19.351433 -32.860451 -4.0054808 0
-19.210268 -32.899307 -4.0027361 0
17.361389 -28.878695 -3.9945612 0
34.167625 -10.06727 -2.3809366 0
34.186455 -9.950222 -2.3646109 0
34.195881 -9.8304424 -2.3456907 0
34.19994 -9.7092485 -2.3253536 0
34.205959 -9.5888815 -2.3057194 0
34.205746 -9.4669046 -2.2844312 0
34.216808 -9.3484583 -2.2665133 0
30.754793 6.1814442 -0.6795876 0
30.713284 6.3273997 -0.6607914 0
30.652105 6.4687033 -0.63698065 0
30.358902 6.5033054 -0.55443978 0
30.326305 6.5982213 -0.54101181 0
30.30216 6.6951132 -0.52991652 0
30.283512 6.7933455 -0.52036881 0
13.026983 27.521811 1.7271134 0
12.040748 27.771358 1.7955673 0
12.143713 27.759647 1.7867582 0
12.248128 27.751513 1.777184 0
12.346628 27.726458 1.7705995 0
12.457003 27.733709 1.7579762 0
12.55722 27.712555 1.7504576 0
12.665483 27.712683 1.7389057 0
-17.668512 27.719294 2.144978 0
-17.587976 27.808735 2.1473401 0
-17.436245 27.797789 2.1665723 0
18.634693 -34.658504 -4.5039597 0
18.78442 -34.654938 -4.5174465 0
18.937679 -34.657707 -4.5331655 0
19.206839 -34.583767 -4.5387464 0
19.394135 -34.652676 -4.5768023 0
19.548908 -34.654179 -4.5926976 0
19.048651 -34.57238 -4.5199146 0
-17.740686 -33.160728 -3.9407642 0
-17.414627 -33.150196 -3.9094944 0
-17.261272 -33.159477 -3.8988366 0
-18.176256 -33.081444 -3.9576349 0
-18.0151 -33.082649 -3.9436033 0
-17.879576 -33.124691 -3.9431055 0
-17.558491 -33.12418 -3.914829 0
17.362093 -28.63068 -3.9167073 0
17.385099 -28.427868 -3.8558552 0
21.100714 -26.135033 -3.6596668 0
34.451706 -7.0147748 -1.9374114 0
34.457939 -6.8982296 -1.9206591 0
34.432957 -6.7753487 -1.8955083 0
34.462688 -6.6639876 -1.8854043 0
34.475338 -6.5491695 -1.8707478 0
34.465336 -6.4299831 -1.8500586 0
34.462185 -6.3123617 -1.8313525 0
